0.000000000000000000e+00 0.000000000000000000e+00 0.000000000000000000e+00 0.000000000000000000e+00 0.000000000000000000e+00 0.000000000000000000e+00 0.000000000000000000e+00 0.000000000000000000e+00 0.000000000000000000e+00 0.000000000000000000e+00 0.000000000000000000e+00 0.000000000000000000e+00 0.000000000000000000e+00 0.000000000000000000e+00 0.000000000000000000e+00 0.000000000000000000e+00 0.000000000000000000e+00 0.000000000000000000e+00 0.000000000000000000e+00 0.000000000000000000e+00 0.000000000000000000e+00 0.000000000000000000e+00 0.000000000000000000e+00 0.000000000000000000e+00 0.000000000000000000e+00 0.000000000000000000e+00 0.000000000000000000e+00 0.000000000000000000e+00 0.000000000000000000e+00 0.000000000000000000e+00 -5.301904783330131821e+00 -5.030503715939292242e+00 -7.637512627455587122e+00 -9.707128885983220101e+00 -6.936192105596523660e+00 -1.356455445390082915e+01 -2.275164209434917950e+01 -2.234878855944677412e+01 -2.238912345648127200e+01 -2.362825880744129137e+01 -2.491239757989067982e+01 -2.692313992305008341e+01 -2.885701724222358777e+01 -2.921231706909664183e+01 -2.939273839983367154e+01 -2.957332356638517723e+01 -2.906549122132470586e+01 -2.503006384910685256e+01 -1.847559817453989339e+01 -1.282480410163929996e+01 -9.159598276952992890e+00 -4.852556966236296176e+00 -5.778382001409328339e+00 -6.395704127117759263e+00 0.000000000000000000e+00 0.000000000000000000e+00 0.000000000000000000e+00 0.000000000000000000e+00 0.000000000000000000e+00 0.000000000000000000e+00 0.000000000000000000e+00 0.000000000000000000e+00 0.000000000000000000e+00 0.000000000000000000e+00 0.000000000000000000e+00 0.000000000000000000e+00 0.000000000000000000e+00 0.000000000000000000e+00 0.000000000000000000e+00 0.000000000000000000e+00 0.000000000000000000e+00 0.000000000000000000e+00 0.000000000000000000e+00 0.000000000000000000e+00 0.000000000000000000e+00 0.000000000000000000e+00 0.000000000000000000e+00 0.000000000000000000e+00
0.000000000000000000e+00 0.000000000000000000e+00 0.000000000000000000e+00 0.000000000000000000e+00 0.000000000000000000e+00 0.000000000000000000e+00 0.000000000000000000e+00 0.000000000000000000e+00 0.000000000000000000e+00 0.000000000000000000e+00 0.000000000000000000e+00 0.000000000000000000e+00 0.000000000000000000e+00 0.000000000000000000e+00 0.000000000000000000e+00 0.000000000000000000e+00 0.000000000000000000e+00 0.000000000000000000e+00 0.000000000000000000e+00 0.000000000000000000e+00 0.000000000000000000e+00 0.000000000000000000e+00 0.000000000000000000e+00 0.000000000000000000e+00 0.000000000000000000e+00 0.000000000000000000e+00 0.000000000000000000e+00 0.000000000000000000e+00 0.000000000000000000e+00 -5.940288531210735634e+00 -4.654981128957668801e+00 -6.142769980176529643e+00 -7.054712630521961181e+00 -1.119619650622618501e+01 -8.711678082682880131e+00 -2.165319706646467424e+01 -2.373180084325285932e+01 -2.330305756944274265e+01 -2.316000000000000014e+01 -2.425948098532693820e+01 -2.543393281282656915e+01 -2.794790694460681735e+01 -2.852180851321679711e+01 -2.987000000000000455e+01 -2.950553533612394119e+01 -3.001027552241081509e+01 -2.783209699701366446e+01 -2.212385568360270582e+01 -1.450144052644101222e+01 -1.070653909688012106e+01 -4.569659809971383879e+00 -5.360444443770506773e+00 -6.220289845742055235e+00 -6.389150079683630246e+00 0.000000000000000000e+00 0.000000000000000000e+00 0.000000000000000000e+00 0.000000000000000000e+00 0.000000000000000000e+00 0.000000000000000000e+00 0.000000000000000000e+00 0.000000000000000000e+00 0.000000000000000000e+00 0.000000000000000000e+00 0.000000000000000000e+00 0.000000000000000000e+00 0.000000000000000000e+00 0.000000000000000000e+00 0.000000000000000000e+00 0.000000000000000000e+00 0.000000000000000000e+00 0.000000000000000000e+00 0.000000000000000000e+00 0.000000000000000000e+00 0.000000000000000000e+00 0.000000000000000000e+00 0.000000000000000000e+00 0.000000000000000000e+00
0.000000000000000000e+00 0.000000000000000000e+00 0.000000000000000000e+00 0.000000000000000000e+00 0.000000000000000000e+00 0.000000000000000000e+00 0.000000000000000000e+00 0.000000000000000000e+00 0.000000000000000000e+00 0.000000000000000000e+00 0.000000000000000000e+00 0.000000000000000000e+00 0.000000000000000000e+00 0.000000000000000000e+00 0.000000000000000000e+00 0.000000000000000000e+00 0.000000000000000000e+00 0.000000000000000000e+00 0.000000000000000000e+00 0.000000000000000000e+00 0.000000000000000000e+00 0.000000000000000000e+00 0.000000000000000000e+00 0.000000000000000000e+00 0.000000000000000000e+00 0.000000000000000000e+00 0.000000000000000000e+00 0.000000000000000000e+00 0.000000000000000000e+00 -5.293364876838271726e+00 -4.722974409263999362e+00 -5.805501792981089260e+00 -1.031210900157181420e+01 -9.898754060266060861e+00 -1.985118828780035471e+01 -2.601297194185012529e+01 -2.442887393975786381e+01 -2.345375516508767433e+01 -2.412962950588320155e+01 -2.559019950115030184e+01 -2.653724282920044431e+01 -2.816968264203657668e+01 -2.875532137443514813e+01 -2.927752440079478546e+01 -2.934642031914891902e+01 -2.871003930096561163e+01 -2.376647115148743694e+01 -1.438474987257397864e+01 -6.727000400127808533e+00 -5.760328711966789861e+00 -5.233082590247213339e+00 -5.607651399487050270e+00 -6.224819256673846724e+00 -6.382596032249501228e+00 -6.507312433871625501e+00 0.000000000000000000e+00 0.000000000000000000e+00 0.000000000000000000e+00 0.000000000000000000e+00 0.000000000000000000e+00 0.000000000000000000e+00 0.000000000000000000e+00 0.000000000000000000e+00 0.000000000000000000e+00 0.000000000000000000e+00 0.000000000000000000e+00 0.000000000000000000e+00 0.000000000000000000e+00 0.000000000000000000e+00 0.000000000000000000e+00 0.000000000000000000e+00 0.000000000000000000e+00 0.000000000000000000e+00 0.000000000000000000e+00 0.000000000000000000e+00 0.000000000000000000e+00 0.000000000000000000e+00 0.000000000000000000e+00
0.000000000000000000e+00 0.000000000000000000e+00 0.000000000000000000e+00 0.000000000000000000e+00 0.000000000000000000e+00 0.000000000000000000e+00 0.000000000000000000e+00 0.000000000000000000e+00 0.000000000000000000e+00 0.000000000000000000e+00 0.000000000000000000e+00 0.000000000000000000e+00 0.000000000000000000e+00 0.000000000000000000e+00 0.000000000000000000e+00 0.000000000000000000e+00 0.000000000000000000e+00 0.000000000000000000e+00 0.000000000000000000e+00 0.000000000000000000e+00 0.000000000000000000e+00 0.000000000000000000e+00 0.000000000000000000e+00 0.000000000000000000e+00 0.000000000000000000e+00 0.000000000000000000e+00 0.000000000000000000e+00 0.000000000000000000e+00 -5.931748624718874652e+00 -4.646441222465809595e+00 -5.835240673501235875e+00 -8.749725978266550186e+00 -1.240367448990009080e+01 -1.911142476997255457e+01 -2.541653985847376873e+01 -2.502751976485162899e+01 -2.329824478689523559e+01 -2.296665878407897310e+01 -2.455378190073869860e+01 -2.644364888474990494e+01 -2.751643553471312131e+01 -2.770549224217860029e+01 -2.783032159181269805e+01 -2.810404140145235630e+01 -2.737548748192757486e+01 -2.630624579880284841e+01 -1.625402976254570575e+01 -6.304754847595645195e+00 -5.649308540861239791e+00 -4.846803902936318131e+00 -5.198481748654527834e+00 -5.944403875081928135e+00 -6.212207919885445406e+00 -6.376041984815372210e+00 -6.459268024676372733e+00 0.000000000000000000e+00 0.000000000000000000e+00 0.000000000000000000e+00 0.000000000000000000e+00 0.000000000000000000e+00 0.000000000000000000e+00 0.000000000000000000e+00 0.000000000000000000e+00 0.000000000000000000e+00 0.000000000000000000e+00 0.000000000000000000e+00 0.000000000000000000e+00 0.000000000000000000e+00 0.000000000000000000e+00 0.000000000000000000e+00 0.000000000000000000e+00 0.000000000000000000e+00 0.000000000000000000e+00 0.000000000000000000e+00 0.000000000000000000e+00 0.000000000000000000e+00 0.000000000000000000e+00 0.000000000000000000e+00
0.000000000000000000e+00 0.000000000000000000e+00 0.000000000000000000e+00 0.000000000000000000e+00 0.000000000000000000e+00 0.000000000000000000e+00 0.000000000000000000e+00 0.000000000000000000e+00 0.000000000000000000e+00 0.000000000000000000e+00 0.000000000000000000e+00 0.000000000000000000e+00 0.000000000000000000e+00 0.000000000000000000e+00 0.000000000000000000e+00 0.000000000000000000e+00 0.000000000000000000e+00 0.000000000000000000e+00 0.000000000000000000e+00 0.000000000000000000e+00 0.000000000000000000e+00 0.000000000000000000e+00 0.000000000000000000e+00 0.000000000000000000e+00 0.000000000000000000e+00 0.000000000000000000e+00 0.000000000000000000e+00 -6.570132372599479353e+00 -5.284824970346411632e+00 -4.415445102588705595e+00 -5.862027652203119388e+00 -8.180637442238207768e+00 -1.612438467535760367e+01 -2.135900092827364460e+01 -2.248057510763021583e+01 -2.215713795020807453e+01 -2.257165253670471827e+01 -2.306120072682265487e+01 -2.560297899770138841e+01 -2.692667830284787911e+01 -2.754531487709383342e+01 -2.768748439994138977e+01 -2.685541808424814647e+01 -2.674435511043962777e+01 -2.556344071842195120e+01 -2.315474171961680128e+01 -4.087668482856614105e+00 -5.471579090962714886e+00 -4.621949331032609187e+00 -5.162497851988781861e+00 -5.436920797564772201e+00 -6.037217639706222272e+00 -6.199596583097044089e+00 -6.369487937381244080e+00 -6.411223615481119964e+00 0.000000000000000000e+00 0.000000000000000000e+00 0.000000000000000000e+00 0.000000000000000000e+00 0.000000000000000000e+00 0.000000000000000000e+00 0.000000000000000000e+00 0.000000000000000000e+00 0.000000000000000000e+00 0.000000000000000000e+00 0.000000000000000000e+00 0.000000000000000000e+00 0.000000000000000000e+00 0.000000000000000000e+00 0.000000000000000000e+00 0.000000000000000000e+00 0.000000000000000000e+00 0.000000000000000000e+00 0.000000000000000000e+00 0.000000000000000000e+00 0.000000000000000000e+00 0.000000000000000000e+00 0.000000000000000000e+00
0.000000000000000000e+00 0.000000000000000000e+00 0.000000000000000000e+00 0.000000000000000000e+00 0.000000000000000000e+00 0.000000000000000000e+00 0.000000000000000000e+00 0.000000000000000000e+00 0.000000000000000000e+00 0.000000000000000000e+00 0.000000000000000000e+00 0.000000000000000000e+00 0.000000000000000000e+00 0.000000000000000000e+00 0.000000000000000000e+00 0.000000000000000000e+00 0.000000000000000000e+00 0.000000000000000000e+00 0.000000000000000000e+00 0.000000000000000000e+00 0.000000000000000000e+00 0.000000000000000000e+00 0.000000000000000000e+00 0.000000000000000000e+00 0.000000000000000000e+00 0.000000000000000000e+00 0.000000000000000000e+00 -5.923208718227015446e+00 -4.637901315973947725e+00 -5.527711366825942996e+00 -7.267235080547528092e+00 -1.177842086888752071e+01 -1.970313178054080083e+01 -2.135437203860103139e+01 -2.159289880975335052e+01 -2.226482263621419477e+01 -2.299551501317268531e+01 -2.402875567907477361e+01 -2.527151715084183436e+01 -2.638495847360441360e+01 -2.653904167709717399e+01 -2.636823851414501974e+01 -2.560748729806171298e+01 -2.465270085348448603e+01 -2.363044650141238989e+01 -1.811701490553350169e+01 -5.634758357724393818e+00 -5.562036427923010784e+00 -5.126513955323035887e+00 -5.036519053538548896e+00 -5.780972696855251947e+00 -6.032262768793168917e+00 -6.186985246308641884e+00 -6.374540880030775902e+00 -6.394977038273403913e+00 -6.598071331429153474e+00 0.000000000000000000e+00 0.000000000000000000e+00 0.000000000000000000e+00 0.000000000000000000e+00 0.000000000000000000e+00 0.000000000000000000e+00 0.000000000000000000e+00 0.000000000000000000e+00 0.000000000000000000e+00 0.000000000000000000e+00 0.000000000000000000e+00 0.000000000000000000e+00 0.000000000000000000e+00 0.000000000000000000e+00 0.000000000000000000e+00 0.000000000000000000e+00 0.000000000000000000e+00 0.000000000000000000e+00 0.000000000000000000e+00 0.000000000000000000e+00 0.000000000000000000e+00 0.000000000000000000e+00
0.000000000000000000e+00 0.000000000000000000e+00 0.000000000000000000e+00 0.000000000000000000e+00 0.000000000000000000e+00 0.000000000000000000e+00 0.000000000000000000e+00 0.000000000000000000e+00 0.000000000000000000e+00 0.000000000000000000e+00 0.000000000000000000e+00 0.000000000000000000e+00 0.000000000000000000e+00 0.000000000000000000e+00 0.000000000000000000e+00 0.000000000000000000e+00 0.000000000000000000e+00 0.000000000000000000e+00 0.000000000000000000e+00 0.000000000000000000e+00 0.000000000000000000e+00 0.000000000000000000e+00 0.000000000000000000e+00 0.000000000000000000e+00 0.000000000000000000e+00 0.000000000000000000e+00 -6.561592466107617483e+00 -5.276285063854552426e+00 -4.107915795913410939e+00 -6.639977631063180397e+00 -9.917405022150219907e+00 -1.754272891565265979e+01 -2.006628905016014741e+01 -2.113759761405670545e+01 -2.185396441905847453e+01 -2.273091760174921205e+01 -2.376644415675072608e+01 -2.452889881563847752e+01 -2.510425222066057671e+01 -2.580098434976953214e+01 -2.574536121464777949e+01 -2.482875558384802162e+01 -2.390392614579227981e+01 -2.250135612868460555e+01 -1.860684288802328368e+01 -1.001586598041782317e+01 -5.692929206838045708e+00 -5.090530058657289914e+00 -5.000535156872802922e+00 -5.266190195642495908e+00 -5.761331669046095172e+00 -6.019651432004766711e+00 -6.174373909520239678e+00 -6.404884979430190306e+00 -6.388422990839275784e+00 -6.550026922233899818e+00 0.000000000000000000e+00 0.000000000000000000e+00 0.000000000000000000e+00 0.000000000000000000e+00 0.000000000000000000e+00 0.000000000000000000e+00 0.000000000000000000e+00 0.000000000000000000e+00 0.000000000000000000e+00 0.000000000000000000e+00 0.000000000000000000e+00 0.000000000000000000e+00 0.000000000000000000e+00 0.000000000000000000e+00 0.000000000000000000e+00 0.000000000000000000e+00 0.000000000000000000e+00 0.000000000000000000e+00 0.000000000000000000e+00 0.000000000000000000e+00 0.000000000000000000e+00 0.000000000000000000e+00
0.000000000000000000e+00 0.000000000000000000e+00 0.000000000000000000e+00 0.000000000000000000e+00 0.000000000000000000e+00 0.000000000000000000e+00 0.000000000000000000e+00 0.000000000000000000e+00 0.000000000000000000e+00 0.000000000000000000e+00 0.000000000000000000e+00 0.000000000000000000e+00 0.000000000000000000e+00 0.000000000000000000e+00 0.000000000000000000e+00 0.000000000000000000e+00 0.000000000000000000e+00 0.000000000000000000e+00 0.000000000000000000e+00 0.000000000000000000e+00 0.000000000000000000e+00 0.000000000000000000e+00 0.000000000000000000e+00 0.000000000000000000e+00 0.000000000000000000e+00 -7.199976213988220408e+00 -5.914668811735154463e+00 -4.629361409482089407e+00 -5.220182060150648340e+00 -4.771838259993791631e+00 -1.405114793484555413e+01 -1.859940188495487590e+01 -2.039222625121161769e+01 -2.169127830071366247e+01 -2.251081996085596515e+01 -2.364623831117415165e+01 -2.430266404128526503e+01 -2.437999999999999901e+01 -2.511634547842942666e+01 -2.476806794702953596e+01 -2.429588208523899340e+01 -2.309427945273404603e+01 -2.199002711448543224e+01 -1.862327836333966502e+01 -1.394629555467027870e+01 -5.993846980586996942e+00 -4.711016088903638988e+00 -4.964551260207057837e+00 -4.874556358422570845e+00 -5.565999526235397177e+00 -5.852317617700891539e+00 -6.007040095216364506e+00 -6.161762572731838361e+00 -6.435229078829605598e+00 -6.381868943405146766e+00 -6.501982513038647049e+00 0.000000000000000000e+00 0.000000000000000000e+00 0.000000000000000000e+00 0.000000000000000000e+00 0.000000000000000000e+00 0.000000000000000000e+00 0.000000000000000000e+00 0.000000000000000000e+00 0.000000000000000000e+00 0.000000000000000000e+00 0.000000000000000000e+00 0.000000000000000000e+00 0.000000000000000000e+00 0.000000000000000000e+00 0.000000000000000000e+00 0.000000000000000000e+00 0.000000000000000000e+00 0.000000000000000000e+00 0.000000000000000000e+00 0.000000000000000000e+00 0.000000000000000000e+00 0.000000000000000000e+00
0.000000000000000000e+00 0.000000000000000000e+00 0.000000000000000000e+00 0.000000000000000000e+00 0.000000000000000000e+00 0.000000000000000000e+00 0.000000000000000000e+00 0.000000000000000000e+00 0.000000000000000000e+00 0.000000000000000000e+00 0.000000000000000000e+00 0.000000000000000000e+00 0.000000000000000000e+00 0.000000000000000000e+00 0.000000000000000000e+00 0.000000000000000000e+00 0.000000000000000000e+00 0.000000000000000000e+00 0.000000000000000000e+00 0.000000000000000000e+00 0.000000000000000000e+00 0.000000000000000000e+00 0.000000000000000000e+00 0.000000000000000000e+00 0.000000000000000000e+00 -6.553052559615758277e+00 -5.267745157362691444e+00 -3.800386489238118948e+00 -6.332448324387886629e+00 -8.415707751976544415e+00 -1.724634983642653552e+01 -1.948492745105547641e+01 -2.106686032313141155e+01 -2.189928745527918963e+01 -2.256076522155508002e+01 -2.361975643292185367e+01 -2.395602471666923705e+01 -2.383629049268209243e+01 -2.428601893478717244e+01 -2.377210388482768622e+01 -2.302121511368049056e+01 -2.152555488530388317e+01 -1.973737230242513974e+01 -1.632623763366841629e+01 -1.123103861747081922e+01 -5.350205484059706862e+00 -4.928567363541310975e+00 -4.838572461756825760e+00 -5.095459593720221392e+00 -5.485445698385967184e+00 -5.839706280912490222e+00 -5.994428758427963189e+00 -6.149151235943436156e+00 -6.465573178229020890e+00 -6.375314895971018636e+00 -6.453938103843394281e+00 -6.688830228986679671e+00 0.000000000000000000e+00 0.000000000000000000e+00 0.000000000000000000e+00 0.000000000000000000e+00 0.000000000000000000e+00 0.000000000000000000e+00 0.000000000000000000e+00 0.000000000000000000e+00 0.000000000000000000e+00 0.000000000000000000e+00 0.000000000000000000e+00 0.000000000000000000e+00 0.000000000000000000e+00 0.000000000000000000e+00 0.000000000000000000e+00 0.000000000000000000e+00 0.000000000000000000e+00 0.000000000000000000e+00 0.000000000000000000e+00 0.000000000000000000e+00 0.000000000000000000e+00
0.000000000000000000e+00 0.000000000000000000e+00 0.000000000000000000e+00 0.000000000000000000e+00 0.000000000000000000e+00 0.000000000000000000e+00 0.000000000000000000e+00 0.000000000000000000e+00 0.000000000000000000e+00 0.000000000000000000e+00 0.000000000000000000e+00 0.000000000000000000e+00 0.000000000000000000e+00 0.000000000000000000e+00 0.000000000000000000e+00 0.000000000000000000e+00 0.000000000000000000e+00 0.000000000000000000e+00 0.000000000000000000e+00 0.000000000000000000e+00 0.000000000000000000e+00 0.000000000000000000e+00 0.000000000000000000e+00 0.000000000000000000e+00 -7.191436307496360314e+00 -5.906128905243294369e+00 -4.620821502990226648e+00 -4.912652753475356349e+00 -7.210312388660328864e+00 -1.484582093464897667e+01 -1.869426388504830783e+01 -2.072974547811443458e+01 -2.202499599459639157e+01 -2.244832010552716994e+01 -2.269005273526974520e+01 -2.347316373881860940e+01 -2.328477918696737348e+01 -2.333557822058287101e+01 -2.304478856051050784e+01 -2.226165489704304079e+01 -2.167197058276206434e+01 -1.967949847307758660e+01 -1.699953091520134052e+01 -1.428026746078529285e+01 -7.721544480669867205e+00 -4.892583466875564113e+00 -4.802588565091078010e+00 -4.712593663306591907e+00 -5.351026355615537966e+00 -5.578259463010261321e+00 -5.827094944124088904e+00 -5.981817421639560095e+00 -6.136539899155033950e+00 -6.495917277628435293e+00 -6.368760848536889618e+00 -6.405893694648140624e+00 -6.640785819791426903e+00 0.000000000000000000e+00 0.000000000000000000e+00 0.000000000000000000e+00 0.000000000000000000e+00 0.000000000000000000e+00 0.000000000000000000e+00 0.000000000000000000e+00 0.000000000000000000e+00 0.000000000000000000e+00 0.000000000000000000e+00 0.000000000000000000e+00 0.000000000000000000e+00 0.000000000000000000e+00 0.000000000000000000e+00 0.000000000000000000e+00 0.000000000000000000e+00 0.000000000000000000e+00 0.000000000000000000e+00 0.000000000000000000e+00 0.000000000000000000e+00 0.000000000000000000e+00
0.000000000000000000e+00 0.000000000000000000e+00 0.000000000000000000e+00 0.000000000000000000e+00 0.000000000000000000e+00 0.000000000000000000e+00 0.000000000000000000e+00 0.000000000000000000e+00 0.000000000000000000e+00 0.000000000000000000e+00 0.000000000000000000e+00 0.000000000000000000e+00 0.000000000000000000e+00 0.000000000000000000e+00 0.000000000000000000e+00 0.000000000000000000e+00 0.000000000000000000e+00 0.000000000000000000e+00 0.000000000000000000e+00 0.000000000000000000e+00 0.000000000000000000e+00 0.000000000000000000e+00 0.000000000000000000e+00 0.000000000000000000e+00 -6.544512653123898183e+00 -5.259205250870831350e+00 -3.492857182562826956e+00 -6.024919017712592861e+00 -1.093245096068771893e+01 -1.713295218754537785e+01 -2.009657315967568181e+01 -2.192305932033677962e+01 -2.247899134188756420e+01 -2.190961772025613996e+01 -2.285999999999999943e+01 -2.291599185258623805e+01 -2.270854396457617241e+01 -2.218540698125609367e+01 -2.194131623774529416e+01 -2.097884720936150060e+01 -1.951531999244641824e+01 -1.733549005254712227e+01 -1.522264829051375301e+01 -1.169550692593809771e+01 -5.167910630903212343e+00 -4.766604668425332925e+00 -4.676609766640845933e+00 -4.924728991797941546e+00 -5.209559727725840972e+00 -5.659761129820212844e+00 -5.814483607335685811e+00 -5.969206084851159666e+00 -6.123928562366632633e+00 -6.526261377027850585e+00 -6.362206801102761489e+00 -6.394249949429048563e+00 -6.592741410596174134e+00 0.000000000000000000e+00 0.000000000000000000e+00 0.000000000000000000e+00 0.000000000000000000e+00 0.000000000000000000e+00 0.000000000000000000e+00 0.000000000000000000e+00 0.000000000000000000e+00 0.000000000000000000e+00 0.000000000000000000e+00 0.000000000000000000e+00 0.000000000000000000e+00 0.000000000000000000e+00 0.000000000000000000e+00 0.000000000000000000e+00 0.000000000000000000e+00 0.000000000000000000e+00 0.000000000000000000e+00 0.000000000000000000e+00 0.000000000000000000e+00 0.000000000000000000e+00
0.000000000000000000e+00 0.000000000000000000e+00 0.000000000000000000e+00 0.000000000000000000e+00 0.000000000000000000e+00 0.000000000000000000e+00 0.000000000000000000e+00 0.000000000000000000e+00 0.000000000000000000e+00 0.000000000000000000e+00 0.000000000000000000e+00 0.000000000000000000e+00 0.000000000000000000e+00 0.000000000000000000e+00 0.000000000000000000e+00 0.000000000000000000e+00 0.000000000000000000e+00 0.000000000000000000e+00 0.000000000000000000e+00 0.000000000000000000e+00 0.000000000000000000e+00 0.000000000000000000e+00 0.000000000000000000e+00 -7.182896401004501996e+00 -5.897588998751435163e+00 -4.612281596498368330e+00 -4.605123446800064357e+00 -7.137185281949831150e+00 -1.579593029180998798e+01 -1.908727256806523798e+01 -2.172164123471091912e+01 -2.256000000000000227e+01 -2.255999999999999872e+01 -2.237985820999811182e+01 -2.247766196321418875e+01 -2.230170237651677212e+01 -2.139539158050441969e+01 -2.115789528001208453e+01 -2.057878825703958370e+01 -1.960550631106049124e+01 -1.777602706926643350e+01 -1.622899893244915859e+01 -1.387343455552859872e+01 -8.979175258737152276e+00 -4.730620771759587839e+00 -4.640625869975099960e+00 -4.550630968190613856e+00 -5.136053184995684973e+00 -5.302373492350135109e+00 -5.647149793031811527e+00 -5.801872270547283605e+00 -5.956594748062758349e+00 -6.111317225578230428e+00 -6.556605476427264989e+00 -6.355652753668632471e+00 -6.387695901994920433e+00 -6.544697001400921366e+00 -6.779589126544207645e+00 0.000000000000000000e+00 0.000000000000000000e+00 0.000000000000000000e+00 0.000000000000000000e+00 0.000000000000000000e+00 0.000000000000000000e+00 0.000000000000000000e+00 0.000000000000000000e+00 0.000000000000000000e+00 0.000000000000000000e+00 0.000000000000000000e+00 0.000000000000000000e+00 0.000000000000000000e+00 0.000000000000000000e+00 0.000000000000000000e+00 0.000000000000000000e+00 0.000000000000000000e+00 0.000000000000000000e+00 0.000000000000000000e+00 0.000000000000000000e+00
0.000000000000000000e+00 0.000000000000000000e+00 0.000000000000000000e+00 0.000000000000000000e+00 0.000000000000000000e+00 0.000000000000000000e+00 0.000000000000000000e+00 0.000000000000000000e+00 0.000000000000000000e+00 0.000000000000000000e+00 0.000000000000000000e+00 0.000000000000000000e+00 0.000000000000000000e+00 0.000000000000000000e+00 0.000000000000000000e+00 0.000000000000000000e+00 0.000000000000000000e+00 0.000000000000000000e+00 0.000000000000000000e+00 0.000000000000000000e+00 0.000000000000000000e+00 0.000000000000000000e+00 -7.821280148885103145e+00 -6.535972746632037200e+00 -5.250665344378970367e+00 -3.185327875887530524e+00 -5.717389711037299982e+00 -7.146000703927224862e+00 -1.852977147758389975e+01 -2.118223958462399636e+01 -2.273935290148440203e+01 -2.281875401323432584e+01 -2.233934012091327048e+01 -2.210886529114240773e+01 -2.178951690672340646e+01 -2.131537160851029711e+01 -2.079415087316460742e+01 -2.042487768647459845e+01 -1.927469508726951020e+01 -1.781340617118004843e+01 -1.633576596131713288e+01 -1.532488534723786699e+01 -1.234300314588555558e+01 -6.834996527216233630e+00 -4.604641973309353986e+00 -4.514647071524867883e+00 -4.722165240283736409e+00 -5.002216336981613054e+00 -5.395187256974428358e+00 -5.634538456243410209e+00 -5.789260933758882288e+00 -5.943983411274355255e+00 -6.098705888789829110e+00 -6.586949575826679393e+00 -6.349098706234501677e+00 -6.381141854560791415e+00 -6.496652592205669485e+00 -6.731544717348954876e+00 0.000000000000000000e+00 0.000000000000000000e+00 0.000000000000000000e+00 0.000000000000000000e+00 0.000000000000000000e+00 0.000000000000000000e+00 0.000000000000000000e+00 0.000000000000000000e+00 0.000000000000000000e+00 0.000000000000000000e+00 0.000000000000000000e+00 0.000000000000000000e+00 0.000000000000000000e+00 0.000000000000000000e+00 0.000000000000000000e+00 0.000000000000000000e+00 0.000000000000000000e+00 0.000000000000000000e+00 0.000000000000000000e+00 0.000000000000000000e+00
0.000000000000000000e+00 0.000000000000000000e+00 0.000000000000000000e+00 0.000000000000000000e+00 0.000000000000000000e+00 0.000000000000000000e+00 0.000000000000000000e+00 0.000000000000000000e+00 0.000000000000000000e+00 0.000000000000000000e+00 0.000000000000000000e+00 0.000000000000000000e+00 0.000000000000000000e+00 0.000000000000000000e+00 0.000000000000000000e+00 0.000000000000000000e+00 0.000000000000000000e+00 0.000000000000000000e+00 0.000000000000000000e+00 0.000000000000000000e+00 0.000000000000000000e+00 0.000000000000000000e+00 -7.174356494512641014e+00 -5.889049092259575069e+00 -4.603741690006508236e+00 -4.297594140124771478e+00 -6.600049905638299741e+00 -1.562545059578427953e+01 -2.022066629984008657e+01 -2.277465259979852874e+01 -2.333684797825669577e+01 -2.277860617723115055e+01 -2.224822565303364286e+01 -2.160150999866134924e+01 -2.067472266601911102e+01 -2.021716658876203354e+01 -1.987703691705569753e+01 -1.928761148775375744e+01 -1.792932672850672304e+01 -1.676000000000000156e+01 -1.616586855134829648e+01 -1.464513079308241039e+01 -1.012904054131228726e+01 -5.372268588763791541e+00 -4.478663174859121909e+00 -4.388668273074635806e+00 -4.921080014375828426e+00 -5.026487521690007121e+00 -5.467204641939535037e+00 -5.621927119455008004e+00 -5.776649596970480971e+00 -5.931372074485953050e+00 -6.086094552001426017e+00 -6.617293675226095573e+00 -6.342544658800373547e+00 -6.374587807126662398e+00 -6.448608183010415829e+00 -6.683500308153702107e+00 -6.918392433296987498e+00 0.000000000000000000e+00 0.000000000000000000e+00 0.000000000000000000e+00 0.000000000000000000e+00 0.000000000000000000e+00 0.000000000000000000e+00 0.000000000000000000e+00 0.000000000000000000e+00 0.000000000000000000e+00 0.000000000000000000e+00 0.000000000000000000e+00 0.000000000000000000e+00 0.000000000000000000e+00 0.000000000000000000e+00 0.000000000000000000e+00 0.000000000000000000e+00 0.000000000000000000e+00 0.000000000000000000e+00 0.000000000000000000e+00
0.000000000000000000e+00 0.000000000000000000e+00 0.000000000000000000e+00 0.000000000000000000e+00 0.000000000000000000e+00 0.000000000000000000e+00 0.000000000000000000e+00 0.000000000000000000e+00 0.000000000000000000e+00 0.000000000000000000e+00 0.000000000000000000e+00 0.000000000000000000e+00 0.000000000000000000e+00 0.000000000000000000e+00 0.000000000000000000e+00 0.000000000000000000e+00 0.000000000000000000e+00 0.000000000000000000e+00 0.000000000000000000e+00 0.000000000000000000e+00 0.000000000000000000e+00 -7.812740242393245715e+00 -6.527432840140177994e+00 -5.242125437887112938e+00 -3.004244718885236587e+00 -5.409860404362007102e+00 -1.080168125203153551e+01 -1.821484943471601881e+01 -2.231517637316723679e+01 -2.364573646392512529e+01 -2.315999999999999659e+01 -2.225000000000000000e+01 -2.144172787263135405e+01 -2.042465176592895659e+01 -1.974518891425972811e+01 -1.913839143217911243e+01 -1.831785879291991392e+01 -1.785907529175817743e+01 -1.667368079757438792e+01 -1.655068274003429352e+01 -1.620951821868920462e+01 -1.283905295252656131e+01 -8.689894823082997988e+00 -4.667781997121720039e+00 -4.352684376408889833e+00 -4.497545228003778206e+00 -4.870812965095280944e+00 -5.119301286314300370e+00 -5.454593305151133720e+00 -5.609315782666606687e+00 -5.764038260182079654e+00 -5.918760737697551733e+00 -6.073483215213025588e+00 -6.647637774625509977e+00 -6.335990611366245417e+00 -6.368033759692533380e+00 -6.400563773815162172e+00 -6.635455898958448451e+00 -6.870348024101734730e+00 0.000000000000000000e+00 0.000000000000000000e+00 0.000000000000000000e+00 0.000000000000000000e+00 0.000000000000000000e+00 0.000000000000000000e+00 0.000000000000000000e+00 0.000000000000000000e+00 0.000000000000000000e+00 0.000000000000000000e+00 0.000000000000000000e+00 0.000000000000000000e+00 0.000000000000000000e+00 0.000000000000000000e+00 0.000000000000000000e+00 0.000000000000000000e+00 0.000000000000000000e+00 0.000000000000000000e+00 0.000000000000000000e+00
0.000000000000000000e+00 0.000000000000000000e+00 0.000000000000000000e+00 0.000000000000000000e+00 0.000000000000000000e+00 0.000000000000000000e+00 0.000000000000000000e+00 0.000000000000000000e+00 0.000000000000000000e+00 0.000000000000000000e+00 0.000000000000000000e+00 0.000000000000000000e+00 0.000000000000000000e+00 0.000000000000000000e+00 0.000000000000000000e+00 0.000000000000000000e+00 0.000000000000000000e+00 0.000000000000000000e+00 0.000000000000000000e+00 0.000000000000000000e+00 -8.451123990273847753e+00 -7.165816588020780031e+00 -5.880509185767714087e+00 -4.595201783514648142e+00 -3.990064833449479043e+00 -5.761473834749406109e+00 -1.539465419999007523e+01 -2.069730717145054300e+01 -2.367668206270369780e+01 -2.336095942854429808e+01 -2.252023340615772895e+01 -2.203977512043596576e+01 -2.043907585751703948e+01 -1.958112982513753764e+01 -1.875467793251909754e+01 -1.851203937847110836e+01 -1.780469436316593246e+01 -1.684303222561025493e+01 -1.623156860915184296e+01 -1.675195325682454950e+01 -1.508818402113021051e+01 -1.155701248117564539e+01 -7.528815079582160230e+00 -4.474233654443450448e+00 -4.226705577958656868e+00 -4.706106843755973657e+00 -4.750601551029879133e+00 -5.212115050938594507e+00 -5.441981968362731514e+00 -5.596704445878204481e+00 -5.751426923393677448e+00 -5.906149400909150415e+00 -6.060871878424622494e+00 -6.677981874024925268e+00 -6.329436563932116400e+00 -6.361479712258404362e+00 -6.393522860584694989e+00 -6.587411489763194794e+00 -6.822303614906481961e+00 0.000000000000000000e+00 0.000000000000000000e+00 0.000000000000000000e+00 0.000000000000000000e+00 0.000000000000000000e+00 0.000000000000000000e+00 0.000000000000000000e+00 0.000000000000000000e+00 0.000000000000000000e+00 0.000000000000000000e+00 0.000000000000000000e+00 0.000000000000000000e+00 0.000000000000000000e+00 0.000000000000000000e+00 0.000000000000000000e+00 0.000000000000000000e+00 0.000000000000000000e+00 0.000000000000000000e+00 0.000000000000000000e+00
0.000000000000000000e+00 0.000000000000000000e+00 0.000000000000000000e+00 0.000000000000000000e+00 0.000000000000000000e+00 0.000000000000000000e+00 0.000000000000000000e+00 0.000000000000000000e+00 0.000000000000000000e+00 0.000000000000000000e+00 0.000000000000000000e+00 0.000000000000000000e+00 0.000000000000000000e+00 0.000000000000000000e+00 0.000000000000000000e+00 0.000000000000000000e+00 0.000000000000000000e+00 0.000000000000000000e+00 0.000000000000000000e+00 0.000000000000000000e+00 -7.804200335901384733e+00 -6.518892933648318788e+00 -5.233585531395251067e+00 -3.948278129142185122e+00 -5.102331097686715999e+00 -7.967513752436492069e+00 -1.858698727466640221e+01 -2.265789492655418513e+01 -2.376154043738257116e+01 -2.259278529607906805e+01 -2.172689705884358702e+01 -2.078610792784384387e+01 -1.921938878560068886e+01 -1.811728008625994946e+01 -1.780819555687767419e+01 -1.743202833654230943e+01 -1.621118859850916039e+01 -1.615796781986064445e+01 -1.657249592153408457e+01 -1.648305902907196341e+01 -1.416835321474331089e+01 -1.067632159448474560e+01 -6.957083736329216173e+00 -4.362332800712262149e+00 -4.272925215723816450e+00 -4.699321001542833720e+00 -4.843415315654172382e+00 -5.274648154058857230e+00 -5.429370631574329309e+00 -5.584093109089802276e+00 -5.738815586605275243e+00 -5.893538064120749098e+00 -6.048260541636222065e+00 -6.708325973424340560e+00 -6.322882516497987382e+00 -6.354925664824275344e+00 -6.386968813150565971e+00 -6.539367080567942914e+00 -6.774259205711228304e+00 -7.009151330854514583e+00 0.000000000000000000e+00 0.000000000000000000e+00 0.000000000000000000e+00 0.000000000000000000e+00 0.000000000000000000e+00 0.000000000000000000e+00 0.000000000000000000e+00 0.000000000000000000e+00 0.000000000000000000e+00 0.000000000000000000e+00 0.000000000000000000e+00 0.000000000000000000e+00 0.000000000000000000e+00 0.000000000000000000e+00 0.000000000000000000e+00 0.000000000000000000e+00 0.000000000000000000e+00 0.000000000000000000e+00
0.000000000000000000e+00 0.000000000000000000e+00 0.000000000000000000e+00 0.000000000000000000e+00 0.000000000000000000e+00 0.000000000000000000e+00 0.000000000000000000e+00 0.000000000000000000e+00 0.000000000000000000e+00 0.000000000000000000e+00 0.000000000000000000e+00 0.000000000000000000e+00 0.000000000000000000e+00 0.000000000000000000e+00 0.000000000000000000e+00 0.000000000000000000e+00 0.000000000000000000e+00 0.000000000000000000e+00 0.000000000000000000e+00 -8.442584083781987658e+00 -7.157276681528922602e+00 -5.871969279275855769e+00 -4.586661877022788936e+00 -3.682535526774185719e+00 -4.922897763860510700e+00 -1.482765348328292987e+01 -2.063914846481578280e+01 -2.259592524013125825e+01 -2.288166462838170645e+01 -2.175754649804903451e+01 -2.047438320667683342e+01 -1.931662367829684612e+01 -1.807118968856473629e+01 -1.738405227570000022e+01 -1.699003208887713257e+01 -1.672194879777124399e+01 -1.611148340703427451e+01 -1.589357056844640681e+01 -1.652805639106767188e+01 -1.589966994922717625e+01 -1.417495093420975039e+01 -1.014963568206462163e+01 -6.634448955583872376e+00 -4.051868807216248314e+00 -4.491133673136118887e+00 -4.474715580369752921e+00 -4.936229080278467407e+00 -5.262036817270454137e+00 -5.416759294785927992e+00 -5.571481772301400959e+00 -5.726204249816873926e+00 -5.880926727332346893e+00 -6.035649204847819860e+00 -6.738670072823754964e+00 -6.316328469063859252e+00 -6.348371617390147215e+00 -6.380414765716436065e+00 -6.491322671372691033e+00 -6.726214796515975536e+00 -6.961106921659261815e+00 0.000000000000000000e+00 0.000000000000000000e+00 0.000000000000000000e+00 0.000000000000000000e+00 0.000000000000000000e+00 0.000000000000000000e+00 0.000000000000000000e+00 0.000000000000000000e+00 0.000000000000000000e+00 0.000000000000000000e+00 0.000000000000000000e+00 0.000000000000000000e+00 0.000000000000000000e+00 0.000000000000000000e+00 0.000000000000000000e+00 0.000000000000000000e+00 0.000000000000000000e+00 0.000000000000000000e+00
0.000000000000000000e+00 0.000000000000000000e+00 0.000000000000000000e+00 0.000000000000000000e+00 0.000000000000000000e+00 0.000000000000000000e+00 0.000000000000000000e+00 0.000000000000000000e+00 0.000000000000000000e+00 0.000000000000000000e+00 0.000000000000000000e+00 0.000000000000000000e+00 0.000000000000000000e+00 0.000000000000000000e+00 0.000000000000000000e+00 0.000000000000000000e+00 0.000000000000000000e+00 0.000000000000000000e+00 0.000000000000000000e+00 -7.795660429409522862e+00 -6.510353027156457806e+00 -5.225045624903391861e+00 -3.939738222650324584e+00 -4.389391038830832592e+00 -1.234960313983366120e+01 -1.753201210308279201e+01 -2.050360149385951658e+01 -2.210035893844726118e+01 -2.154049666436015187e+01 -2.027926813446370602e+01 -1.924199763452101308e+01 -1.773580702225728345e+01 -1.686023893313003796e+01 -1.553528299674359658e+01 -1.613142848614047153e+01 -1.599656978377580963e+01 -1.592894830565855635e+01 -1.626636086979668150e+01 -1.602612624171642253e+01 -1.494000000000000128e+01 -1.357595908115559880e+01 -1.012795480466297704e+01 -7.182493851781238448e+00 -4.048305203443862688e+00 -4.484347830922978062e+00 -4.567529344994045282e+00 -5.029042844902759768e+00 -5.249425480482053707e+00 -5.404147957997526674e+00 -5.558870435512998753e+00 -5.713592913028471720e+00 -5.868315390543944687e+00 -6.023037868059417654e+00 -6.769014172223170256e+00 -6.309774421629729346e+00 -6.341817569956018197e+00 -6.373860718282307047e+00 -6.443278262177437377e+00 -6.678170387320723655e+00 -6.913062512464009046e+00 0.000000000000000000e+00 0.000000000000000000e+00 0.000000000000000000e+00 0.000000000000000000e+00 0.000000000000000000e+00 0.000000000000000000e+00 0.000000000000000000e+00 0.000000000000000000e+00 0.000000000000000000e+00 0.000000000000000000e+00 0.000000000000000000e+00 0.000000000000000000e+00 0.000000000000000000e+00 0.000000000000000000e+00 0.000000000000000000e+00 0.000000000000000000e+00 0.000000000000000000e+00 0.000000000000000000e+00
0.000000000000000000e+00 0.000000000000000000e+00 0.000000000000000000e+00 0.000000000000000000e+00 0.000000000000000000e+00 0.000000000000000000e+00 0.000000000000000000e+00 0.000000000000000000e+00 0.000000000000000000e+00 0.000000000000000000e+00 0.000000000000000000e+00 0.000000000000000000e+00 0.000000000000000000e+00 0.000000000000000000e+00 0.000000000000000000e+00 0.000000000000000000e+00 0.000000000000000000e+00 0.000000000000000000e+00 -8.434044177290129340e+00 -7.148736775037060731e+00 -5.863429372783995674e+00 -4.578121970530928841e+00 -3.375006220098890175e+00 -7.917593809525449444e+00 -1.503629582478912141e+01 -1.806123560599469613e+01 -2.055447864837193706e+01 -2.086172956367453679e+01 -2.072044038647835151e+01 -1.896462898735514813e+01 -1.763238744345028408e+01 -1.664346855478220633e+01 -1.597801047697386245e+01 -1.569184926825625048e+01 -1.593866095328307964e+01 -1.535514171651024640e+01 -1.440894384527095973e+01 -1.571801641751239487e+01 -1.543976364600187523e+01 -1.484740619772113135e+01 -1.273468925990314560e+01 -9.790314472461577822e+00 -7.365230104971099756e+00 -4.276160502516260564e+00 -4.220506262593105795e+00 -4.660343109618339419e+00 -5.082091666178178535e+00 -5.236814143693651502e+00 -5.391536621209123581e+00 -5.546259098724597436e+00 -5.700981576240070403e+00 -5.855704053755543370e+00 -6.010426531271016337e+00 -6.799358271622584660e+00 -6.303220374195601217e+00 -6.335263522521890067e+00 -6.367306670848178030e+00 -6.399349819174467768e+00 -6.630125978125470887e+00 -6.865018103268756278e+00 -7.099910228412041668e+00 0.000000000000000000e+00 0.000000000000000000e+00 0.000000000000000000e+00 0.000000000000000000e+00 0.000000000000000000e+00 0.000000000000000000e+00 0.000000000000000000e+00 0.000000000000000000e+00 0.000000000000000000e+00 0.000000000000000000e+00 0.000000000000000000e+00 0.000000000000000000e+00 0.000000000000000000e+00 0.000000000000000000e+00 0.000000000000000000e+00 0.000000000000000000e+00 0.000000000000000000e+00
0.000000000000000000e+00 0.000000000000000000e+00 0.000000000000000000e+00 0.000000000000000000e+00 0.000000000000000000e+00 0.000000000000000000e+00 0.000000000000000000e+00 0.000000000000000000e+00 0.000000000000000000e+00 0.000000000000000000e+00 0.000000000000000000e+00 0.000000000000000000e+00 0.000000000000000000e+00 0.000000000000000000e+00 0.000000000000000000e+00 0.000000000000000000e+00 0.000000000000000000e+00 -9.072427925170730489e+00 -7.787120522917666321e+00 -6.501813120664598600e+00 -5.216505718411532655e+00 -3.931198316158466710e+00 -4.444695994626816749e+00 -1.358487703435139871e+01 -1.589474436288352521e+01 -1.613073966050518848e+01 -1.898459736893286021e+01 -1.926959487510941571e+01 -1.834126098597953813e+01 -1.732823066035638249e+01 -1.645869204082388038e+01 -1.571090864701459289e+01 -1.527753463521069577e+01 -1.524000000000000021e+01 -1.553999999999999915e+01 -1.555584547479020863e+01 -1.524000000000000021e+01 -1.506502476507380095e+01 -1.433771203238998027e+01 -1.412457352668696942e+01 -1.071943477843303683e+01 -9.797916869490007841e+00 -7.417324204265448806e+00 -4.304564262408332453e+00 -4.291643374333919070e+00 -4.753156874242633556e+00 -5.069480329389776330e+00 -5.224202806905249297e+00 -5.378925284420722264e+00 -5.533647761936196119e+00 -5.688370239451668198e+00 -5.843092716967141165e+00 -5.894204880912592870e+00 -6.829702371021999951e+00 -6.296666326761472199e+00 -6.328709475087761049e+00 -6.360752623414049900e+00 -6.392795771740338751e+00 -6.582081568930217230e+00 -6.816973694073502621e+00 -7.051865819216789788e+00 0.000000000000000000e+00 0.000000000000000000e+00 0.000000000000000000e+00 0.000000000000000000e+00 0.000000000000000000e+00 0.000000000000000000e+00 0.000000000000000000e+00 0.000000000000000000e+00 0.000000000000000000e+00 0.000000000000000000e+00 0.000000000000000000e+00 0.000000000000000000e+00 0.000000000000000000e+00 0.000000000000000000e+00 0.000000000000000000e+00 0.000000000000000000e+00 0.000000000000000000e+00
0.000000000000000000e+00 0.000000000000000000e+00 0.000000000000000000e+00 0.000000000000000000e+00 0.000000000000000000e+00 0.000000000000000000e+00 0.000000000000000000e+00 0.000000000000000000e+00 0.000000000000000000e+00 0.000000000000000000e+00 0.000000000000000000e+00 0.000000000000000000e+00 0.000000000000000000e+00 0.000000000000000000e+00 0.000000000000000000e+00 0.000000000000000000e+00 0.000000000000000000e+00 -8.425504270798267470e+00 -7.140196868545201525e+00 -5.854889466292132916e+00 -4.569582064039068747e+00 -3.017308242912260408e+00 -7.758135873396814652e+00 -1.280635649071656879e+01 -1.581556026508284774e+01 -1.601432879747808613e+01 -1.776456475102715160e+01 -1.789005893713646955e+01 -1.761180217943712378e+01 -1.632306630588973917e+01 -1.548481221575900157e+01 -1.524000000000000021e+01 -1.494000000000000128e+01 -1.524000000000000021e+01 -1.524000000000000199e+01 -1.541988954919889920e+01 -1.508551291169654007e+01 -1.435796893067616509e+01 -1.433000000000000007e+01 -1.364886639789638423e+01 -1.084391818837712229e+01 -9.296184929458872759e+00 -7.503059963792099829e+00 -3.532128627131518428e+00 -4.384457138958212319e+00 -4.845970638866926805e+00 -5.056868992601375012e+00 -5.211591470116847091e+00 -5.366313947632320058e+00 -5.521036425147793025e+00 -5.675758902663266880e+00 -5.830481380178738959e+00 -5.761657225790891346e+00 -6.860046470421414355e+00 -6.290112279327343181e+00 -6.322155427653632920e+00 -6.354198575979921770e+00 -6.386241724306209733e+00 -6.534037159734964462e+00 -6.768929284878250741e+00 -7.003821410021535243e+00 0.000000000000000000e+00 0.000000000000000000e+00 0.000000000000000000e+00 0.000000000000000000e+00 0.000000000000000000e+00 0.000000000000000000e+00 0.000000000000000000e+00 0.000000000000000000e+00 0.000000000000000000e+00 0.000000000000000000e+00 0.000000000000000000e+00 0.000000000000000000e+00 0.000000000000000000e+00 0.000000000000000000e+00 0.000000000000000000e+00 0.000000000000000000e+00 0.000000000000000000e+00
0.000000000000000000e+00 0.000000000000000000e+00 0.000000000000000000e+00 0.000000000000000000e+00 0.000000000000000000e+00 0.000000000000000000e+00 0.000000000000000000e+00 0.000000000000000000e+00 0.000000000000000000e+00 0.000000000000000000e+00 0.000000000000000000e+00 0.000000000000000000e+00 0.000000000000000000e+00 0.000000000000000000e+00 0.000000000000000000e+00 0.000000000000000000e+00 -9.063888018678873948e+00 -7.778580616425803562e+00 -6.493273214172739394e+00 -5.207965811919670784e+00 -3.922658409666606172e+00 -5.090195089980820597e+00 -1.121860733874580163e+01 -1.412191606597776783e+01 -1.595715971710790804e+01 -1.712586957969811507e+01 -1.731188887760032102e+01 -1.737349353615558911e+01 -1.671070317092809887e+01 -1.600236255794011697e+01 -1.534668903924134042e+01 -1.493999999999999950e+01 -1.468620227725494587e+01 -1.499511354770070248e+01 -1.518385055604375289e+01 -1.490626710994072823e+01 -1.463000000000000078e+01 -1.404403804706079306e+01 -1.419036627410309137e+01 -1.375333367527997197e+01 -1.159468456836105332e+01 -8.969800910758937817e+00 -7.390727950532576251e+00 -4.605521589333230636e+00 -4.477270903582507344e+00 -4.889535178297499840e+00 -5.044257655812972807e+00 -5.198980133328445774e+00 -5.353702610843919629e+00 -5.508425088359391708e+00 -5.663147565874864675e+00 -5.817870043390337642e+00 -5.629109570669189822e+00 -6.890390569820829647e+00 -6.283558231893215051e+00 -6.315601380219504790e+00 -6.347644528545792753e+00 -6.379687676872081603e+00 -6.485992750539711693e+00 -6.720884875682997972e+00 -6.955777000826282475e+00 -7.190669125969568753e+00 0.000000000000000000e+00 0.000000000000000000e+00 0.000000000000000000e+00 0.000000000000000000e+00 0.000000000000000000e+00 0.000000000000000000e+00 0.000000000000000000e+00 0.000000000000000000e+00 0.000000000000000000e+00 0.000000000000000000e+00 0.000000000000000000e+00 0.000000000000000000e+00 0.000000000000000000e+00 0.000000000000000000e+00 0.000000000000000000e+00 0.000000000000000000e+00
0.000000000000000000e+00 0.000000000000000000e+00 0.000000000000000000e+00 0.000000000000000000e+00 0.000000000000000000e+00 0.000000000000000000e+00 0.000000000000000000e+00 0.000000000000000000e+00 0.000000000000000000e+00 0.000000000000000000e+00 0.000000000000000000e+00 0.000000000000000000e+00 0.000000000000000000e+00 0.000000000000000000e+00 0.000000000000000000e+00 0.000000000000000000e+00 -8.416964364306410928e+00 -7.131656962053341431e+00 -5.846349559800277262e+00 -4.561042157547209541e+00 -3.139194056905318497e+00 -7.437544424738879556e+00 -1.171004883262206775e+01 -1.449018313677327541e+01 -1.652851927740363180e+01 -1.737000000000000099e+01 -1.723948326420888577e+01 -1.722870881875019933e+01 -1.640923238001704476e+01 -1.543929978809332937e+01 -1.512678219028950544e+01 -1.463000000000000078e+01 -1.462999999999999901e+01 -1.510738968028087115e+01 -1.484816420090729849e+01 -1.455141959264776119e+01 -1.448565097218038744e+01 -1.429642862452145735e+01 -1.419007143601953125e+01 -1.365897456403770249e+01 -1.210921363389672756e+01 -1.009157537498952095e+01 -8.256820176263302002e+00 -4.741866501449026217e+00 -4.570084668206800593e+00 -4.876923841509097635e+00 -5.031646319024570602e+00 -5.186368796540044457e+00 -5.341091274055517424e+00 -5.495813751570990391e+00 -5.650536229086462470e+00 -5.805258706601936325e+00 -5.496561915547490074e+00 -6.920734669220244051e+00 -6.277004184459086034e+00 -6.309047332785374884e+00 -6.341090481111663735e+00 -6.373133629437953473e+00 -6.437948341344458925e+00 -6.672840466487745203e+00 -6.907732591631029706e+00 -7.142624716774315985e+00 0.000000000000000000e+00 0.000000000000000000e+00 0.000000000000000000e+00 0.000000000000000000e+00 0.000000000000000000e+00 0.000000000000000000e+00 0.000000000000000000e+00 0.000000000000000000e+00 0.000000000000000000e+00 0.000000000000000000e+00 0.000000000000000000e+00 0.000000000000000000e+00 0.000000000000000000e+00 0.000000000000000000e+00 0.000000000000000000e+00 0.000000000000000000e+00
0.000000000000000000e+00 0.000000000000000000e+00 0.000000000000000000e+00 0.000000000000000000e+00 0.000000000000000000e+00 0.000000000000000000e+00 0.000000000000000000e+00 0.000000000000000000e+00 0.000000000000000000e+00 0.000000000000000000e+00 0.000000000000000000e+00 0.000000000000000000e+00 0.000000000000000000e+00 0.000000000000000000e+00 0.000000000000000000e+00 -9.055348112187012077e+00 -7.770040709933948797e+00 -6.484733307680879300e+00 -5.199425905427814243e+00 -3.964472658062696109e+00 -3.214544442874634367e+00 -9.343672387789455414e+00 -1.239138435087842538e+01 -1.493328722902377237e+01 -1.631985369583025403e+01 -1.746589746740997739e+01 -1.703485846643468093e+01 -1.666329897197849164e+01 -1.572414482409823044e+01 -1.531173071623779869e+01 -1.484800069729599059e+01 -1.458047996846488026e+01 -1.463000000000000078e+01 -1.488310364285686660e+01 -1.442222069208511925e+01 -1.413973378474831044e+01 -1.436864394775122733e+01 -1.419771052382621868e+01 -1.390859883471278735e+01 -1.318554266306331968e+01 -1.220906436722692234e+01 -9.951054621604052741e+00 -8.884291148035858399e+00 -4.879999999999999005e+00 -4.662898432831092066e+00 -4.864312504720696317e+00 -5.019034982236169284e+00 -5.173757459751641363e+00 -5.328479937267114330e+00 -5.483202414782588185e+00 -5.637924892298061152e+00 -5.792647369813534119e+00 -5.476585000276713799e+00 -6.951078768619659343e+00 -6.270450137024957016e+00 -6.302493285351246755e+00 -6.334536433677535605e+00 -6.366579582003824456e+00 -6.398622730330113306e+00 -6.624796057292491547e+00 -6.859688182435778714e+00 -7.094580307579063216e+00 0.000000000000000000e+00 0.000000000000000000e+00 0.000000000000000000e+00 0.000000000000000000e+00 0.000000000000000000e+00 0.000000000000000000e+00 0.000000000000000000e+00 0.000000000000000000e+00 0.000000000000000000e+00 0.000000000000000000e+00 0.000000000000000000e+00 0.000000000000000000e+00 0.000000000000000000e+00 0.000000000000000000e+00 0.000000000000000000e+00 0.000000000000000000e+00
0.000000000000000000e+00 0.000000000000000000e+00 0.000000000000000000e+00 0.000000000000000000e+00 0.000000000000000000e+00 0.000000000000000000e+00 0.000000000000000000e+00 0.000000000000000000e+00 0.000000000000000000e+00 0.000000000000000000e+00 0.000000000000000000e+00 0.000000000000000000e+00 0.000000000000000000e+00 0.000000000000000000e+00 -9.693731860067618555e+00 -8.408424457814550834e+00 -7.123117055561485778e+00 -5.837809653308417168e+00 -4.552502251055351223e+00 -3.201781533229119070e+00 -5.451487568268326811e+00 -1.053042275776916803e+01 -1.343104176903980829e+01 -1.528012983114976819e+01 -1.629629479160217898e+01 -1.707000000000000028e+01 -1.675625333580716969e+01 -1.621060441077577252e+01 -1.561291695733127227e+01 -1.545372312998754438e+01 -1.475886492479697587e+01 -1.459901680351991970e+01 -1.463000000000000256e+01 -1.484328211166456413e+01 -1.455351616812821902e+01 -1.459311953066507428e+01 -1.433000000000000185e+01 -1.416871231721719582e+01 -1.392826381092863031e+01 -1.341000000000000014e+01 -1.272568623801578447e+01 -1.075438847616302063e+01 -8.942430516546405528e+00 -4.911356604022282468e+00 -4.696978690416821145e+00 -4.851701167932295000e+00 -5.006423645447767079e+00 -5.161146122963240046e+00 -5.315868600478713901e+00 -5.470591077994185980e+00 -5.625313555509659835e+00 -5.780036033025131914e+00 -5.494423349529321321e+00 -6.981422868019073746e+00 -6.263896089590828886e+00 -6.295939237917117737e+00 -6.327982386243405699e+00 -6.360025534569695438e+00 -6.392068682895984288e+00 -6.576751648097239666e+00 -6.811643773240525057e+00 -7.046535898383810448e+00 -7.281428023527096727e+00 0.000000000000000000e+00 0.000000000000000000e+00 0.000000000000000000e+00 0.000000000000000000e+00 0.000000000000000000e+00 0.000000000000000000e+00 0.000000000000000000e+00 0.000000000000000000e+00 0.000000000000000000e+00 0.000000000000000000e+00 0.000000000000000000e+00 0.000000000000000000e+00 0.000000000000000000e+00 0.000000000000000000e+00 0.000000000000000000e+00
0.000000000000000000e+00 0.000000000000000000e+00 0.000000000000000000e+00 0.000000000000000000e+00 0.000000000000000000e+00 0.000000000000000000e+00 0.000000000000000000e+00 0.000000000000000000e+00 0.000000000000000000e+00 0.000000000000000000e+00 0.000000000000000000e+00 0.000000000000000000e+00 0.000000000000000000e+00 0.000000000000000000e+00 -9.046808205695153760e+00 -7.761500803442085150e+00 -6.476193401189021870e+00 -5.190885998935952372e+00 -5.851367313657236835e+00 -7.173700775487301229e+00 -1.113883504504059907e+01 -1.272173224479363185e+01 -1.322426577411780002e+01 -1.520303878526308061e+01 -1.646000000000000085e+01 -1.687142589139963533e+01 -1.655278319315155855e+01 -1.587044882939118473e+01 -1.550329954865555138e+01 -1.501163494524102227e+01 -1.463000000000000256e+01 -1.438826847729225378e+01 -1.439232511043383589e+01 -1.439399874143509805e+01 -1.438335784381947136e+01 -1.452562662455432019e+01 -1.422089941599798024e+01 -1.419550808685102261e+01 -1.379797892762175593e+01 -1.322139221058474057e+01 -1.266900692377037885e+01 -1.132907889898078935e+01 -8.914088858844934293e+00 -5.876525256149419008e+00 -4.684367353628419828e+00 -4.839089831143892795e+00 -4.993812308659365762e+00 -5.148534786174838729e+00 -5.303257263690310808e+00 -5.457979741205784663e+00 -5.612702218721256742e+00 -5.767424696236730597e+00 -5.512261698781928843e+00 -7.011766967418489038e+00 -6.257342042156700757e+00 -6.289385190482988719e+00 -6.321428338809277570e+00 -6.353471487135566420e+00 -6.385514635461855271e+00 -6.528707238901986898e+00 -6.763599364045272289e+00 -6.998491489188557679e+00 -7.233383614331843958e+00 0.000000000000000000e+00 0.000000000000000000e+00 0.000000000000000000e+00 0.000000000000000000e+00 0.000000000000000000e+00 0.000000000000000000e+00 0.000000000000000000e+00 0.000000000000000000e+00 0.000000000000000000e+00 0.000000000000000000e+00 0.000000000000000000e+00 0.000000000000000000e+00 0.000000000000000000e+00 0.000000000000000000e+00 0.000000000000000000e+00
0.000000000000000000e+00 0.000000000000000000e+00 0.000000000000000000e+00 0.000000000000000000e+00 0.000000000000000000e+00 0.000000000000000000e+00 0.000000000000000000e+00 0.000000000000000000e+00 0.000000000000000000e+00 0.000000000000000000e+00 0.000000000000000000e+00 0.000000000000000000e+00 0.000000000000000000e+00 -9.685191953575754908e+00 -8.399884551322688964e+00 -7.114577149069621242e+00 -5.829269746816556186e+00 -6.011574158854859462e+00 -6.953997186613387171e+00 -9.423757085876438566e+00 -1.146425915538124229e+01 -1.493485712087199246e+01 -1.363149054615693601e+01 -1.515670308527996291e+01 -1.695256875723323020e+01 -1.660208053182418553e+01 -1.598333633507357909e+01 -1.524000000000000199e+01 -1.493999999999999950e+01 -1.477928768335484833e+01 -1.463000000000000256e+01 -1.433540429881701428e+01 -1.451941656596526720e+01 -1.465841880170396472e+01 -1.449837466448806822e+01 -1.432999999999999829e+01 -1.402206991939226199e+01 -1.427486809740776685e+01 -1.372333610708750129e+01 -1.319976024265743320e+01 -1.280075992545521402e+01 -1.217616236381650729e+01 -9.748400561069077597e+00 -6.571582268094637413e+00 -4.671756016840018511e+00 -4.826478494355490589e+00 -4.981200971870963556e+00 -5.135923449386437412e+00 -5.290645926901909490e+00 -5.445368404417382457e+00 -5.600090881932855424e+00 -5.754813359448328391e+00 -5.530100048034537252e+00 -7.042111066817904330e+00 -6.250787994722570851e+00 -6.282831143048860589e+00 -6.314874291375149440e+00 -6.346917439701437402e+00 -6.378960588027726253e+00 -6.480662829706734129e+00 -6.715554954850018632e+00 -6.950447079993304911e+00 -7.185339205136591190e+00 -7.420231330279876580e+00 0.000000000000000000e+00 0.000000000000000000e+00 0.000000000000000000e+00 0.000000000000000000e+00 0.000000000000000000e+00 0.000000000000000000e+00 0.000000000000000000e+00 0.000000000000000000e+00 0.000000000000000000e+00 0.000000000000000000e+00 0.000000000000000000e+00 0.000000000000000000e+00 0.000000000000000000e+00 0.000000000000000000e+00
0.000000000000000000e+00 0.000000000000000000e+00 0.000000000000000000e+00 0.000000000000000000e+00 0.000000000000000000e+00 0.000000000000000000e+00 0.000000000000000000e+00 0.000000000000000000e+00 0.000000000000000000e+00 0.000000000000000000e+00 0.000000000000000000e+00 0.000000000000000000e+00 -1.032357570145635783e+01 -9.038268299203293665e+00 -7.752960896950227720e+00 -6.467653494697159999e+00 -6.080381272603635701e+00 -6.262754560018457539e+00 -6.830007705800075435e+00 -8.965938295994947183e+00 -1.134501412808534759e+01 -1.378771540307108623e+01 -1.435262832925059584e+01 -1.557735946668569227e+01 -1.663888986108230483e+01 -1.632964053474734811e+01 -1.537190118773426661e+01 -1.505035138488372937e+01 -1.492098527380393769e+01 -1.463000000000000256e+01 -1.438376203105565487e+01 -1.433000000000000007e+01 -1.432999999999999829e+01 -1.430793043913495488e+01 -1.436073077846588042e+01 -1.435883965593820832e+01 -1.408663043840581963e+01 -1.432999999999999829e+01 -1.383641065227661038e+01 -1.310999999999999943e+01 -1.278677633217628262e+01 -1.268388360311505103e+01 -1.011422514729708766e+01 -7.289060285366520731e+00 -4.659144680051615417e+00 -4.813867157567089272e+00 -4.968589635082562239e+00 -5.123312112598035206e+00 -5.278034590113508173e+00 -5.432757067628980252e+00 -5.587479545144454107e+00 -5.742202022659927074e+00 -5.547938397287143886e+00 -7.072455166217319622e+00 -6.244233947288442721e+00 -6.276277095614730683e+00 -6.308320243941020422e+00 -6.340363392267309273e+00 -6.372406540593598123e+00 -6.432618420511481361e+00 -6.667510545654766752e+00 -6.902402670798052142e+00 -7.137294795941338421e+00 -7.372186921084622924e+00 0.000000000000000000e+00 0.000000000000000000e+00 0.000000000000000000e+00 0.000000000000000000e+00 0.000000000000000000e+00 0.000000000000000000e+00 0.000000000000000000e+00 0.000000000000000000e+00 0.000000000000000000e+00 0.000000000000000000e+00 0.000000000000000000e+00 0.000000000000000000e+00 0.000000000000000000e+00 0.000000000000000000e+00
0.000000000000000000e+00 0.000000000000000000e+00 0.000000000000000000e+00 0.000000000000000000e+00 0.000000000000000000e+00 0.000000000000000000e+00 0.000000000000000000e+00 0.000000000000000000e+00 0.000000000000000000e+00 0.000000000000000000e+00 0.000000000000000000e+00 0.000000000000000000e+00 -9.676652047083891262e+00 -8.391344644830828869e+00 -7.106037242577762925e+00 -6.149188386352504310e+00 -6.785929430693000697e+00 -5.400950676208414514e+00 -7.259710637134186406e+00 -8.789103393993929814e+00 -1.293471160032515144e+01 -1.396554120542333699e+01 -1.454326240949954219e+01 -1.551995005105162306e+01 -1.659697928597257643e+01 -1.626887188803808115e+01 -1.520295934590541087e+01 -1.493999999999999773e+01 -1.472627291891085832e+01 -1.457228546364513022e+01 -1.433000000000000007e+01 -1.432999999999999829e+01 -1.433000000000000185e+01 -1.426615042862798610e+01 -1.457684138086685621e+01 -1.423698513871908133e+01 -1.452056976464394822e+01 -1.433000000000000007e+01 -1.402234146700056172e+01 -1.310999999999999943e+01 -1.279999999999999893e+01 -1.310999999999999943e+01 -1.063993380266162703e+01 -7.934738384264824695e+00 -4.450899404624738764e+00 -4.801255820778687067e+00 -4.955978298294160922e+00 -5.110700775809633001e+00 -5.265423253325105968e+00 -5.420145730840578935e+00 -5.574868208356051902e+00 -5.729590685871524869e+00 -5.565776746539751407e+00 -7.102799265616734026e+00 -6.237679899854313703e+00 -6.269723048180602554e+00 -6.301766196506891404e+00 -6.333809344833181143e+00 -6.365852493159469105e+00 -6.397895641485758844e+00 -6.619466136459513095e+00 -6.854358261602799374e+00 -7.089250386746084764e+00 -7.324142511889370155e+00 0.000000000000000000e+00 0.000000000000000000e+00 0.000000000000000000e+00 0.000000000000000000e+00 0.000000000000000000e+00 0.000000000000000000e+00 0.000000000000000000e+00 0.000000000000000000e+00 0.000000000000000000e+00 0.000000000000000000e+00 0.000000000000000000e+00 0.000000000000000000e+00 0.000000000000000000e+00 0.000000000000000000e+00
0.000000000000000000e+00 0.000000000000000000e+00 0.000000000000000000e+00 0.000000000000000000e+00 0.000000000000000000e+00 0.000000000000000000e+00 0.000000000000000000e+00 0.000000000000000000e+00 0.000000000000000000e+00 0.000000000000000000e+00 0.000000000000000000e+00 -1.031503579496449596e+01 -9.029728392711428242e+00 -7.744420990458363185e+00 -6.459113588205299017e+00 -7.224237579503853368e+00 -5.924125546882957671e+00 -5.428009700354675005e+00 -6.192795012436407731e+00 -8.509884669463716023e+00 -8.553037892050955548e+00 -1.312624032629825166e+01 -1.485827711802931894e+01 -1.632921472509580241e+01 -1.650149536649659865e+01 -1.610423422928927550e+01 -1.524000000000000021e+01 -1.493999999999999950e+01 -1.464196910728180789e+01 -1.451765875170098496e+01 -1.431136812844642492e+01 -1.419460479410374276e+01 -1.444015261713497011e+01 -1.433000000000000185e+01 -1.438962521277592899e+01 -1.414169705383448772e+01 -1.427354074064733602e+01 -1.433000000000000007e+01 -1.395168774074038964e+01 -1.293062880373405932e+01 -1.275569070752349354e+01 -1.314188233915860238e+01 -1.184641339641589752e+01 -8.615877549657582790e+00 -4.153309336209127345e+00 -4.788644483990284861e+00 -4.943366961505757828e+00 -5.098089439021231684e+00 -5.252811916536704651e+00 -5.407534394052177618e+00 -5.562256871567649696e+00 -5.716979349083123552e+00 -5.583615095792358929e+00 -7.133143365016149318e+00 -6.231125852420185574e+00 -6.263169000746473536e+00 -6.295212149072763275e+00 -6.327255297399052125e+00 -6.359298445725340088e+00 -6.391341594051629826e+00 -6.571421727264260326e+00 -6.806313852407546605e+00 -7.041205977550831996e+00 -7.276098102694118275e+00 -7.510990227837403665e+00 0.000000000000000000e+00 0.000000000000000000e+00 0.000000000000000000e+00 0.000000000000000000e+00 0.000000000000000000e+00 0.000000000000000000e+00 0.000000000000000000e+00 0.000000000000000000e+00 0.000000000000000000e+00 0.000000000000000000e+00 0.000000000000000000e+00 0.000000000000000000e+00 0.000000000000000000e+00
0.000000000000000000e+00 0.000000000000000000e+00 0.000000000000000000e+00 0.000000000000000000e+00 0.000000000000000000e+00 0.000000000000000000e+00 0.000000000000000000e+00 0.000000000000000000e+00 0.000000000000000000e+00 0.000000000000000000e+00 0.000000000000000000e+00 -9.668112140592036496e+00 -8.382804738338968775e+00 -7.097497336085902830e+00 -7.587899516596292138e+00 -6.447300417557515040e+00 -5.509212398928359455e+00 -5.739721892839860118e+00 -6.355049051498005142e+00 -7.476415791679893452e+00 -9.699372973336974013e+00 -1.300146598238534779e+01 -1.482061793046566223e+01 -1.598788348385511604e+01 -1.666647430221288673e+01 -1.576733231710019112e+01 -1.518393402314092988e+01 -1.494633505535318463e+01 -1.488347717370741208e+01 -1.448339943642528915e+01 -1.427502620551387480e+01 -1.417735131259063230e+01 -1.447580821648349136e+01 -1.438750896936840640e+01 -1.444758520508419863e+01 -1.412962263244934746e+01 -1.405053202710350391e+01 -1.456491665487059706e+01 -1.423278861409402296e+01 -1.312704005913551697e+01 -1.259995931643514666e+01 -1.318283094999247496e+01 -1.284467855449227258e+01 -8.775091562767578068e+00 -4.133986943907758338e+00 -4.756813911962838759e+00 -4.930755624717356511e+00 -5.085478102232829478e+00 -5.240200579748302445e+00 -5.394923057263776300e+00 -5.549645534779248379e+00 -5.704368012294721346e+00 -5.601453445044967339e+00 -7.163487464415563721e+00 -6.224571804986056556e+00 -6.256614953312345406e+00 -6.288658101638635145e+00 -6.320701249964923107e+00 -6.352744398291211070e+00 -6.384787546617500809e+00 -6.523377318069007558e+00 -6.758269443212293837e+00 -6.993161568355579227e+00 -7.228053693498865506e+00 -7.462945818642150897e+00 0.000000000000000000e+00 0.000000000000000000e+00 0.000000000000000000e+00 0.000000000000000000e+00 0.000000000000000000e+00 0.000000000000000000e+00 0.000000000000000000e+00 0.000000000000000000e+00 0.000000000000000000e+00 0.000000000000000000e+00 0.000000000000000000e+00 0.000000000000000000e+00 0.000000000000000000e+00
0.000000000000000000e+00 0.000000000000000000e+00 0.000000000000000000e+00 0.000000000000000000e+00 0.000000000000000000e+00 0.000000000000000000e+00 0.000000000000000000e+00 0.000000000000000000e+00 0.000000000000000000e+00 0.000000000000000000e+00 -1.030649588847263587e+01 -9.021188486219571701e+00 -7.735881083966503979e+00 -7.951561453688732684e+00 -6.970475288232043987e+00 -5.590415097502043018e+00 -5.820924591413545457e+00 -6.051434085325047896e+00 -6.202467831117731478e+00 -7.633543534874826619e+00 -9.360428791376978808e+00 -1.294058313123208848e+01 -1.474616845918489005e+01 -1.621565678647804631e+01 -1.659748022018520430e+01 -1.545982260392349161e+01 -1.523999999999999844e+01 -1.494000000000000128e+01 -1.464241123824784552e+01 -1.452773973575624211e+01 -1.432999999999999829e+01 -1.406224905977810913e+01 -1.433000000000000185e+01 -1.444966931972582458e+01 -1.439452062256534326e+01 -1.401999999999999957e+01 -1.374065950997104757e+01 -1.449998149751647958e+01 -1.418322167570606673e+01 -1.340897035934041881e+01 -1.285426638256223697e+01 -1.307899914244640627e+01 -1.315014916372713039e+01 -9.466343109378488663e+00 -5.659675862308083616e+00 -4.459223843547229116e+00 -4.918144287928955194e+00 -5.072866765444428161e+00 -5.227589242959901128e+00 -5.382311720475373207e+00 -5.537034197990846174e+00 -5.691756675506319141e+00 -5.619291794297575748e+00 -7.193831563814979901e+00 -6.218017757551927538e+00 -6.250060905878216388e+00 -6.282104054204506127e+00 -6.314147202530794090e+00 -6.346190350857082052e+00 -6.378233499183371791e+00 -6.475332908873755677e+00 -6.710225034017041068e+00 -6.945117159160327347e+00 -7.180009284303613626e+00 -7.414901409446898128e+00 0.000000000000000000e+00 0.000000000000000000e+00 0.000000000000000000e+00 0.000000000000000000e+00 0.000000000000000000e+00 0.000000000000000000e+00 0.000000000000000000e+00 0.000000000000000000e+00 0.000000000000000000e+00 0.000000000000000000e+00 0.000000000000000000e+00 0.000000000000000000e+00 0.000000000000000000e+00
0.000000000000000000e+00 0.000000000000000000e+00 0.000000000000000000e+00 0.000000000000000000e+00 0.000000000000000000e+00 0.000000000000000000e+00 0.000000000000000000e+00 0.000000000000000000e+00 0.000000000000000000e+00 -1.094487963635324057e+01 -9.659572234100172849e+00 -8.374264831847106905e+00 -8.265097000893444346e+00 -7.493650158906612901e+00 -5.671617796075729245e+00 -5.902127289987229908e+00 -6.132636783898731458e+00 -6.363146277810233897e+00 -6.593655771721735448e+00 -8.407670867460732111e+00 -9.671345583840880167e+00 -1.301291469192214123e+01 -1.476408002962744170e+01 -1.589788051775248334e+01 -1.668405323202570401e+01 -1.553376608982965301e+01 -1.516031068090963707e+01 -1.523229491299699134e+01 -1.493677974327696667e+01 -1.465408686129368832e+01 -1.434911547279410016e+01 -1.404474333821208809e+01 -1.433000000000000007e+01 -1.463000000000000078e+01 -1.434165914475935111e+01 -1.401999999999999957e+01 -1.353993569480535797e+01 -1.442114401990847306e+01 -1.433000000000000007e+01 -1.367786443998799228e+01 -1.288194462505739324e+01 -1.280000000000000071e+01 -1.340286206750113074e+01 -1.076454716798560440e+01 -6.417594328944618454e+00 -4.267582645156308807e+00 -4.905532951140552989e+00 -5.060255428656025956e+00 -5.214977906171498923e+00 -5.369700383686971890e+00 -5.524422861202445745e+00 -5.679145338717917824e+00 -5.637130143550183270e+00 -7.224175663214394305e+00 -6.211463710117799408e+00 -6.243506858444087371e+00 -6.275550006770376221e+00 -6.307593155096665072e+00 -6.339636303422954811e+00 -6.371679451749242773e+00 -6.427288499678502909e+00 -6.662180624821788300e+00 -6.897072749965074578e+00 -7.131964875108359969e+00 -7.366857000251645360e+00 -7.601749125394931639e+00 0.000000000000000000e+00 0.000000000000000000e+00 0.000000000000000000e+00 0.000000000000000000e+00 0.000000000000000000e+00 0.000000000000000000e+00 0.000000000000000000e+00 0.000000000000000000e+00 0.000000000000000000e+00 0.000000000000000000e+00 0.000000000000000000e+00 0.000000000000000000e+00
0.000000000000000000e+00 0.000000000000000000e+00 0.000000000000000000e+00 0.000000000000000000e+00 0.000000000000000000e+00 0.000000000000000000e+00 0.000000000000000000e+00 0.000000000000000000e+00 0.000000000000000000e+00 -1.029795598198077933e+01 -9.012648579727713383e+00 -8.333904114642280092e+00 -8.016825029581143625e+00 -5.752820494649412808e+00 -5.983329988560914359e+00 -6.213839482472415909e+00 -6.444348976383917460e+00 -6.674858470295419899e+00 -6.905367964206921449e+00 -8.663957021903675226e+00 -9.371854289934557158e+00 -1.296027157703090893e+01 -1.429002231063778616e+01 -1.581539603406050709e+01 -1.641187457178698850e+01 -1.524422968956109692e+01 -1.500744413642229702e+01 -1.510550781133329679e+01 -1.486434648197907116e+01 -1.463000000000000256e+01 -1.433000000000000007e+01 -1.409035987387159850e+01 -1.441254691818036981e+01 -1.463000000000000078e+01 -1.448435271014702863e+01 -1.403298540571967834e+01 -1.438941139683150539e+01 -1.434990634297793122e+01 -1.432999999999999829e+01 -1.389929537616388977e+01 -1.324333934780375444e+01 -1.281764133596297661e+01 -1.310999999999999943e+01 -1.219325561465328889e+01 -7.310942063702626115e+00 -4.349311996020398752e+00 -4.765138350885329999e+00 -5.047644091867623750e+00 -5.202366569383096717e+00 -5.357089046898570572e+00 -5.511811524414042651e+00 -5.666534001929515618e+00 -5.654968492802789903e+00 -7.254345284712406361e+00 -6.204909662683670390e+00 -6.236952811009959241e+00 -6.268995959336247203e+00 -6.301039107662536054e+00 -6.333082255988825793e+00 -6.365125404315114643e+00 -6.397168552641403494e+00 -6.614136215626535531e+00 -6.849028340769820922e+00 -7.083920465913107201e+00 -7.318812591056392591e+00 -7.553704716199678870e+00 0.000000000000000000e+00 0.000000000000000000e+00 0.000000000000000000e+00 0.000000000000000000e+00 0.000000000000000000e+00 0.000000000000000000e+00 0.000000000000000000e+00 0.000000000000000000e+00 0.000000000000000000e+00 0.000000000000000000e+00 0.000000000000000000e+00 0.000000000000000000e+00
0.000000000000000000e+00 0.000000000000000000e+00 0.000000000000000000e+00 0.000000000000000000e+00 0.000000000000000000e+00 0.000000000000000000e+00 0.000000000000000000e+00 0.000000000000000000e+00 -1.093633972986138048e+01 -9.651032327608314532e+00 -8.402711228391055442e+00 -8.539999900255708098e+00 -5.834023193223097259e+00 -6.064532687134599698e+00 -6.295042181046101248e+00 -6.525551674957602799e+00 -6.756061168869104350e+00 -6.986570662780605900e+00 -7.217080156692107451e+00 -8.104432875204501840e+00 -1.021886220618554653e+01 -1.250000000000000000e+01 -1.342528573098358180e+01 -1.541352163801214203e+01 -1.637756778536046198e+01 -1.517059711891433693e+01 -1.518541270203164117e+01 -1.543385844626544134e+01 -1.494000000000000128e+01 -1.459995292495170816e+01 -1.438973749056336793e+01 -1.432999999999999829e+01 -1.463000000000000256e+01 -1.463000000000000078e+01 -1.446862107806146192e+01 -1.410994243368798706e+01 -1.416803358099732790e+01 -1.465948334642152417e+01 -1.477386916567579966e+01 -1.424859678375238836e+01 -1.340711746777613733e+01 -1.310999999999999943e+01 -1.281093011050403518e+01 -1.296309539183717341e+01 -8.439928226741127304e+00 -4.552645133393966148e+00 -4.467548282469718579e+00 -5.035032755079221545e+00 -5.189755232594695400e+00 -5.344477710110168367e+00 -5.499200187625641334e+00 -5.653922665141115189e+00 -5.672806842055398313e+00 -7.272183633965014771e+00 -6.198355615249541373e+00 -6.230398763575830223e+00 -6.262441911902119074e+00 -6.294485060228407036e+00 -6.326528208554696775e+00 -6.358571356880986514e+00 -6.390614505207274476e+00 -6.566091806431282762e+00 -6.800983931574569041e+00 -7.035876056717853544e+00 -7.270768181861139823e+00 -7.505660307004426102e+00 0.000000000000000000e+00 0.000000000000000000e+00 0.000000000000000000e+00 0.000000000000000000e+00 0.000000000000000000e+00 0.000000000000000000e+00 0.000000000000000000e+00 0.000000000000000000e+00 0.000000000000000000e+00 0.000000000000000000e+00 0.000000000000000000e+00 0.000000000000000000e+00
0.000000000000000000e+00 0.000000000000000000e+00 0.000000000000000000e+00 0.000000000000000000e+00 0.000000000000000000e+00 0.000000000000000000e+00 0.000000000000000000e+00 0.000000000000000000e+00 -1.028941607548891746e+01 -9.004108673235851512e+00 -9.063174770930251256e+00 -5.915225891796782598e+00 -6.145735385708284149e+00 -6.376244879619785699e+00 -6.606754373531287250e+00 -6.837263867442789689e+00 -7.067773361354291239e+00 -7.298282855265792790e+00 -7.528792349177294341e+00 -7.759301843088795891e+00 -1.064816456240487774e+01 -1.212109352161578890e+01 -1.315691243175095693e+01 -1.483341706381211367e+01 -1.646000000000000085e+01 -1.516302048109362843e+01 -1.529074341927414871e+01 -1.550467796947319421e+01 -1.524000000000000021e+01 -1.464452669817582375e+01 -1.434474534372358612e+01 -1.463000000000000078e+01 -1.480387113808055233e+01 -1.462999999999999901e+01 -1.433000000000000007e+01 -1.425713374932553101e+01 -1.448355578834192059e+01 -1.493999999999999950e+01 -1.500857038665686716e+01 -1.441886049149348636e+01 -1.378952527940027473e+01 -1.339679129785229605e+01 -1.294856257438243574e+01 -1.310999999999999943e+01 -1.003641332949350229e+01 -5.210977587658562449e+00 -4.536157246316802727e+00 -5.022421418290820228e+00 -5.177143895806293195e+00 -5.331866373321766162e+00 -5.486588850837239129e+00 -5.641311328352712984e+00 -5.690645191308005835e+00 -7.290021983217622292e+00 -6.191801567815412355e+00 -6.223844716141702094e+00 -6.255887864467990056e+00 -6.287931012794278018e+00 -6.319974161120567757e+00 -6.352017309446857496e+00 -6.384060457773145458e+00 -6.518047397236029994e+00 -6.752939522379316273e+00 -6.987831647522600775e+00 -7.222723772665886166e+00 -7.457615897809172445e+00 -7.692508022952457836e+00 0.000000000000000000e+00 0.000000000000000000e+00 0.000000000000000000e+00 0.000000000000000000e+00 0.000000000000000000e+00 0.000000000000000000e+00 0.000000000000000000e+00 0.000000000000000000e+00 0.000000000000000000e+00 0.000000000000000000e+00 0.000000000000000000e+00
0.000000000000000000e+00 0.000000000000000000e+00 0.000000000000000000e+00 0.000000000000000000e+00 0.000000000000000000e+00 0.000000000000000000e+00 0.000000000000000000e+00 -1.092779982336952393e+01 -9.642492421116456214e+00 -9.586349641604801519e+00 -5.996428590370467049e+00 -6.226938084281968599e+00 -6.457447578193470150e+00 -6.687957072104971701e+00 -6.918466566016474140e+00 -7.148976059927975690e+00 -7.379485553839476353e+00 -7.609995047750979680e+00 -7.840504541662481230e+00 -8.071014035573982781e+00 -1.038373002532646971e+01 -1.196839000827790400e+01 -1.272867507316466629e+01 -1.440519688145247734e+01 -1.663214232681043114e+01 -1.560510802367158156e+01 -1.557089083358924242e+01 -1.557303940113682650e+01 -1.524000000000000021e+01 -1.493999999999999950e+01 -1.462999999999999901e+01 -1.465173592266358327e+01 -1.493999999999999950e+01 -1.462840959460017487e+01 -1.463000000000000256e+01 -1.451573849822245244e+01 -1.423162630256499028e+01 -1.541891775979427237e+01 -1.551495694516605184e+01 -1.462999999999999901e+01 -1.417157524764290955e+01 -1.330998457314832351e+01 -1.308601246844481558e+01 -1.326440419059336406e+01 -1.201896157658567077e+01 -6.616458654602404010e+00 -4.617886597180891783e+00 -4.773462789807819462e+00 -5.164532559017890989e+00 -5.319255036533364844e+00 -5.473977514048837811e+00 -5.628699991564310778e+00 -5.708483540560613356e+00 -7.307860332470229814e+00 -6.185247520381283337e+00 -6.217290668707573076e+00 -6.249333817033861038e+00 -6.281376965360150777e+00 -6.313420113686438739e+00 -6.345463262012728478e+00 -6.377506410339016441e+00 -6.470002988040777225e+00 -6.704895113184062616e+00 -6.939787238327348895e+00 -7.174679363470634286e+00 -7.409571488613918788e+00 -7.644463613757205067e+00 0.000000000000000000e+00 0.000000000000000000e+00 0.000000000000000000e+00 0.000000000000000000e+00 0.000000000000000000e+00 0.000000000000000000e+00 0.000000000000000000e+00 0.000000000000000000e+00 0.000000000000000000e+00 0.000000000000000000e+00 0.000000000000000000e+00
0.000000000000000000e+00 0.000000000000000000e+00 0.000000000000000000e+00 0.000000000000000000e+00 0.000000000000000000e+00 0.000000000000000000e+00 -1.156618357125012508e+01 -1.028087616899705914e+01 -1.004513079476074111e+01 -6.096043421992385802e+00 -6.308140782855653939e+00 -6.538650276767155489e+00 -6.769159770678656152e+00 -6.999669264590158591e+00 -7.230178758501660141e+00 -7.460688252413161692e+00 -7.691197746324663242e+00 -7.921707240236166570e+00 -8.152216734147668120e+00 -8.382726228059169671e+00 -1.011486345986549296e+01 -1.227517094985802615e+01 -1.303709813410764795e+01 -1.468081529222361148e+01 -1.698076578862995234e+01 -1.591045931837554761e+01 -1.573582524860522724e+01 -1.584999999999999964e+01 -1.554000000000000092e+01 -1.493999999999999773e+01 -1.493652495396989011e+01 -1.493999999999999950e+01 -1.493999999999999950e+01 -1.463000000000000256e+01 -1.445022765285111710e+01 -1.436886004156187546e+01 -1.512855203697637663e+01 -1.600975276386419921e+01 -1.567977087962895766e+01 -1.470259483873512174e+01 -1.444044301064992197e+01 -1.354526200831303839e+01 -1.310999999999999943e+01 -1.310427509736704366e+01 -1.372700539279441401e+01 -8.777930164429214699e+00 -4.888543480880999326e+00 -4.723002496613204038e+00 -5.151921222229489672e+00 -5.306643699744962639e+00 -5.461366177260435606e+00 -5.616088654775909461e+00 -5.726321889813221766e+00 -7.325698681722837335e+00 -6.178693472947154319e+00 -6.210736621273444058e+00 -6.242779769599732909e+00 -6.274822917926021759e+00 -6.306866066252310610e+00 -6.338909214578599460e+00 -6.370952362904887423e+00 -6.421958578845524457e+00 -6.656850703988809848e+00 -6.891742829132095238e+00 -7.126634954275380629e+00 -7.361527079418667796e+00 -7.596419204561952299e+00 -7.831311329705238578e+00 0.000000000000000000e+00 0.000000000000000000e+00 0.000000000000000000e+00 0.000000000000000000e+00 0.000000000000000000e+00 0.000000000000000000e+00 0.000000000000000000e+00 0.000000000000000000e+00 0.000000000000000000e+00 0.000000000000000000e+00
0.000000000000000000e+00 0.000000000000000000e+00 0.000000000000000000e+00 0.000000000000000000e+00 0.000000000000000000e+00 0.000000000000000000e+00 -1.091925991687766029e+01 -1.040879273185319320e+01 -6.203012044903289279e+00 -6.389343481429339278e+00 -6.619852975340839052e+00 -6.850362469252342379e+00 -7.080871963163843041e+00 -7.311381457075344592e+00 -7.541890950986847031e+00 -7.772400444898348582e+00 -8.002909938809850132e+00 -8.233419432721351683e+00 -8.290726902277965493e+00 -8.136887024712914140e+00 -1.158000000000000185e+01 -1.214971105532626083e+01 -1.308015516654610799e+01 -1.471266153921056308e+01 -1.664373882533470450e+01 -1.609192370313630605e+01 -1.584999999999999787e+01 -1.612133095144259443e+01 -1.558021359521080917e+01 -1.529859228102437996e+01 -1.524000000000000021e+01 -1.494000000000000128e+01 -1.494000000000000128e+01 -1.470246438017539248e+01 -1.433000000000000185e+01 -1.480340325788802502e+01 -1.533605818626979556e+01 -1.569656614709732523e+01 -1.555937374791519190e+01 -1.462999999999999901e+01 -1.433000000000000007e+01 -1.354493805740579759e+01 -1.310999999999999943e+01 -1.303920267200927796e+01 -1.481774397040723201e+01 -1.164656622256857865e+01 -5.923538034242097794e+00 -4.804731847477293982e+00 -5.079377297145920345e+00 -5.294032362956560434e+00 -5.448754840472033401e+00 -5.603477317987507256e+00 -5.744160239065829288e+00 -7.343537030975445745e+00 -6.172139425513027078e+00 -6.204182573839315040e+00 -6.236225722165603891e+00 -6.268268870491892741e+00 -6.300312018818181592e+00 -6.332355167144470443e+00 -6.364398315470758405e+00 -6.396441463797048144e+00 -6.608806294793557967e+00 -6.843698419936842470e+00 -7.078590545080126972e+00 -7.313482670223415028e+00 -7.548374795366699530e+00 -7.783266920509985809e+00 0.000000000000000000e+00 0.000000000000000000e+00 0.000000000000000000e+00 0.000000000000000000e+00 0.000000000000000000e+00 0.000000000000000000e+00 0.000000000000000000e+00 0.000000000000000000e+00 0.000000000000000000e+00 0.000000000000000000e+00
0.000000000000000000e+00 0.000000000000000000e+00 0.000000000000000000e+00 0.000000000000000000e+00 0.000000000000000000e+00 -1.155764366475826499e+01 -1.058742695668082945e+01 -6.309980667814198085e+00 -6.470546180003022840e+00 -6.701055673914524391e+00 -6.931565167826026830e+00 -7.162074661737527492e+00 -7.392584155649029931e+00 -7.623093649560532370e+00 -7.853603143472033921e+00 -8.084112637383535471e+00 -8.109755601517470325e+00 -7.845980642299902996e+00 -7.319882337305917197e+00 -6.793784032311929622e+00 -1.144768910884349999e+01 -1.215913151957441407e+01 -1.293280368047149054e+01 -1.460837170918212280e+01 -1.628266625564687686e+01 -1.614580564357058989e+01 -1.608430570614853750e+01 -1.614999999999999858e+01 -1.576468349545998215e+01 -1.553999999999999915e+01 -1.524678245232613705e+01 -1.516629155848681698e+01 -1.494872183258739007e+01 -1.432927918397614242e+01 -1.401999999999999780e+01 -1.466536945066974518e+01 -1.496593062465095691e+01 -1.532096991739828340e+01 -1.509406867744299419e+01 -1.458350460586355268e+01 -1.430285109652605868e+01 -1.384887832298435484e+01 -1.310890518394064230e+01 -1.310000457932607709e+01 -1.416812900862340641e+01 -1.449279490789225378e+01 -7.714743236516584446e+00 -5.181653378190638648e+00 -4.909847746909606236e+00 -5.281421026168159116e+00 -5.436143503683632083e+00 -5.590865981199105050e+00 -5.761998588318435921e+00 -7.361375380228053267e+00 -6.165585378078898060e+00 -6.197628526405186022e+00 -6.229671674731475761e+00 -6.261714823057763724e+00 -6.293757971384052574e+00 -6.325801119710341425e+00 -6.357844268036631163e+00 -6.389887416362919126e+00 -6.560761885598303422e+00 -6.795654010741589701e+00 -7.030546135884875980e+00 -7.265438261028161371e+00 -7.500330386171446762e+00 -7.735222511314733040e+00 0.000000000000000000e+00 0.000000000000000000e+00 0.000000000000000000e+00 0.000000000000000000e+00 0.000000000000000000e+00 0.000000000000000000e+00 0.000000000000000000e+00 0.000000000000000000e+00 0.000000000000000000e+00 0.000000000000000000e+00
0.000000000000000000e+00 0.000000000000000000e+00 0.000000000000000000e+00 0.000000000000000000e+00 -1.219602741263886969e+01 -1.091072001038580197e+01 -7.245359819535418744e+00 -6.551748878576708179e+00 -6.782258372488209730e+00 -7.012767866399711281e+00 -7.243277360311212831e+00 -7.473786854222715270e+00 -7.704296348134215044e+00 -7.934805842045718371e+00 -7.928784300756982262e+00 -7.555074259886890076e+00 -7.028975954892905165e+00 -6.502877649898918477e+00 -6.273322028983419507e+00 -6.565977411474200665e+00 -1.136994786506403443e+01 -1.229576721180358767e+01 -1.307009385205708796e+01 -1.425936473112601988e+01 -1.619311533584090057e+01 -1.594263735148791206e+01 -1.611238491903617742e+01 -1.646000000000000085e+01 -1.608277262013354303e+01 -1.541391193149889460e+01 -1.553999999999999915e+01 -1.524000000000000021e+01 -1.493999999999999950e+01 -1.427132418414699444e+01 -1.401999999999999602e+01 -1.437902260539286381e+01 -1.493849990509787062e+01 -1.485259235090712693e+01 -1.463000000000000078e+01 -1.424425660851789921e+01 -1.401999999999999957e+01 -1.373365029788315894e+01 -1.310999999999999943e+01 -1.310999999999999943e+01 -1.364745160822390346e+01 -1.479509255095013920e+01 -1.278467620718259212e+01 -8.066703816346535660e+00 -4.991577097773696181e+00 -5.268809689379756911e+00 -5.423532166895229878e+00 -5.578254644410703733e+00 -5.779836937571043443e+00 -7.379213729480660788e+00 -6.159031330644769042e+00 -6.191074478971057893e+00 -6.223117627297346743e+00 -6.255160775623635594e+00 -6.287203923949924445e+00 -6.319247072276213295e+00 -6.351290220602502146e+00 -6.383333368928790996e+00 -6.512717476403051542e+00 -6.747609601546336933e+00 -6.982501726689623212e+00 -7.217393851832909490e+00 -7.452285976976193993e+00 -7.687178102119480272e+00 -7.922070227262764774e+00 0.000000000000000000e+00 0.000000000000000000e+00 0.000000000000000000e+00 0.000000000000000000e+00 0.000000000000000000e+00 0.000000000000000000e+00 0.000000000000000000e+00 0.000000000000000000e+00 0.000000000000000000e+00
0.000000000000000000e+00 0.000000000000000000e+00 0.000000000000000000e+00 0.000000000000000000e+00 -1.154910375826640312e+01 -8.675501779939871483e+00 -6.632951577150393518e+00 -6.863461071061894181e+00 -7.093970564973396620e+00 -7.324480058884897282e+00 -7.554989552796399721e+00 -7.785499046707901272e+00 -7.747812999996490646e+00 -7.264167877473877155e+00 -6.738069572479891356e+00 -6.324891944038229852e+00 -6.120626935762353504e+00 -6.125282170949631677e+00 -6.129937406136908074e+00 -7.677191615421103066e+00 -1.152700897807179992e+01 -1.232214405122350698e+01 -1.277866811167198868e+01 -1.398592397553705524e+01 -1.560435716289598140e+01 -1.583097060361280484e+01 -1.632884436543102424e+01 -1.662344915396568723e+01 -1.627415265017871349e+01 -1.605000552548885651e+01 -1.553999999999999915e+01 -1.489971157076031361e+01 -1.493999999999999773e+01 -1.393001509113684477e+01 -1.358590494565570062e+01 -1.401999999999999957e+01 -1.427365885040993376e+01 -1.437290910204453276e+01 -1.410497249877012393e+01 -1.375949480792274748e+01 -1.368965525755842449e+01 -1.348388032448792195e+01 -1.316526674073139702e+01 -1.304865771690729481e+01 -1.352144358825078641e+01 -1.433000000000000007e+01 -1.493999999999999950e+01 -1.133767706920332863e+01 -6.276701783592256056e+00 -5.096692997206007547e+00 -5.410920830106827673e+00 -5.565643307622301528e+00 -5.797675286823651852e+00 -7.397052078733268310e+00 -6.152477283210640913e+00 -6.184520431536928875e+00 -6.216563579863217726e+00 -6.248606728189506576e+00 -6.280649876515795427e+00 -6.312693024842084277e+00 -6.344736173168373128e+00 -6.376779321494661090e+00 -6.464673067207797885e+00 -6.699565192351084164e+00 -6.934457317494370443e+00 -7.169349442637656722e+00 -7.404241567780941224e+00 -7.639133692924227503e+00 -7.874025818067512006e+00 0.000000000000000000e+00 0.000000000000000000e+00 0.000000000000000000e+00 0.000000000000000000e+00 0.000000000000000000e+00 0.000000000000000000e+00 0.000000000000000000e+00 0.000000000000000000e+00 0.000000000000000000e+00
0.000000000000000000e+00 0.000000000000000000e+00 0.000000000000000000e+00 -1.218748750614700960e+01 -1.010564374034431445e+01 -6.714154275724077969e+00 -6.944663769635579520e+00 -7.175173263547081071e+00 -7.405682757458581733e+00 -7.636192251370085060e+00 -7.499359800054852698e+00 -6.973261495060866011e+00 -6.505677105820302231e+00 -6.202333189424282800e+00 -5.967931842541286613e+00 -5.972587077728564786e+00 -5.977242312915842959e+00 -5.981897548103120243e+00 -6.167505441998843985e+00 -8.944975312555904168e+00 -1.168840866993486571e+01 -1.248748688322220168e+01 -1.273869604855217830e+01 -1.362708445035844562e+01 -1.538062346134843139e+01 -1.584999999999999964e+01 -1.645516122110001689e+01 -1.659862004049955786e+01 -1.640567051400811849e+01 -1.609817479825460396e+01 -1.554000000000000092e+01 -1.506659308546873532e+01 -1.456734563299543694e+01 -1.377190524089206569e+01 -1.341000000000000014e+01 -1.371999999999999886e+01 -1.371999999999999886e+01 -1.385390389435761627e+01 -1.381999184103765899e+01 -1.341000000000000014e+01 -1.317822171481707549e+01 -1.332409191600095433e+01 -1.310999999999999943e+01 -1.280000000000000071e+01 -1.343123031907631137e+01 -1.358847291736287133e+01 -1.398875384551544343e+01 -1.325851333418726163e+01 -9.418663615491048802e+00 -5.196253637658840852e+00 -5.398309493318426355e+00 -5.546555864905892363e+00 -5.815513636076259374e+00 -7.414890427985875831e+00 -6.145923235776511007e+00 -6.177966384102799857e+00 -6.210009532429089596e+00 -6.242052680755378447e+00 -6.274095829081667297e+00 -6.306138977407955259e+00 -6.338182125734244110e+00 -6.370225274060532961e+00 -6.416628658012545117e+00 -6.651520783155831396e+00 -6.886412908299117674e+00 -7.121305033442403065e+00 -7.356197158585687568e+00 -7.591089283728974735e+00 -7.825981408872260126e+00 0.000000000000000000e+00 0.000000000000000000e+00 0.000000000000000000e+00 0.000000000000000000e+00 0.000000000000000000e+00 0.000000000000000000e+00 0.000000000000000000e+00 0.000000000000000000e+00 0.000000000000000000e+00
0.000000000000000000e+00 0.000000000000000000e+00 0.000000000000000000e+00 -1.153578570074874676e+01 -6.795356974297763308e+00 -7.025866468209263971e+00 -7.256375962120765521e+00 -7.486885456032267960e+00 -7.208453417641839778e+00 -6.746290620477997102e+00 -6.240323594204752133e+00 -6.032086407606101375e+00 -5.815236749320222387e+00 -5.819891984507498783e+00 -5.824547219694776956e+00 -5.829202454882053352e+00 -5.833857690069330637e+00 -5.838512925256607922e+00 -6.903619777497441490e+00 -1.142501117667097787e+01 -1.177870711021296479e+01 -1.223421446951495639e+01 -1.275293675530514470e+01 -1.375668633854270340e+01 -1.493753012100906297e+01 -1.591717727709491115e+01 -1.697392752176921604e+01 -1.670695007972867074e+01 -1.601192525220802665e+01 -1.591828199081989403e+01 -1.550638797150426385e+01 -1.498036917565796955e+01 -1.407829908443881983e+01 -1.372000000000000064e+01 -1.346232724019169780e+01 -1.345567151255029081e+01 -1.380411816842909545e+01 -1.384127209626511146e+01 -1.337085384680215050e+01 -1.281603283948239635e+01 -1.311000000000000121e+01 -1.298012831710711801e+01 -1.287364946607374527e+01 -1.280000000000000071e+01 -1.310999999999999943e+01 -1.351851904812377647e+01 -1.341000000000000014e+01 -1.283661467251807231e+01 -1.202655113921419172e+01 -7.628661582736768310e+00 -5.385698156530024150e+00 -5.414008209784192616e+00 -5.833351985328866895e+00 -7.432728777238484241e+00 -6.139369188342382877e+00 -6.171412336668671728e+00 -6.203455484994960578e+00 -6.235498633321248541e+00 -6.267541781647538279e+00 -6.299584929973826242e+00 -6.331628078300115980e+00 -6.363671226626403943e+00 -6.395714374952693682e+00 -6.603476373960579515e+00 -6.838368499103864906e+00 -7.073260624247150297e+00 -7.308152749390435687e+00 -7.543044874533721078e+00 -7.777936999677007357e+00 -8.012829124820292748e+00 0.000000000000000000e+00 0.000000000000000000e+00 0.000000000000000000e+00 0.000000000000000000e+00 0.000000000000000000e+00 0.000000000000000000e+00 0.000000000000000000e+00 0.000000000000000000e+00
0.000000000000000000e+00 0.000000000000000000e+00 -1.238676985251659524e+01 -6.876559672871447759e+00 -7.107069166782948422e+00 -7.323541549792421890e+00 -6.917547035228826857e+00 -6.408890999391557486e+00 -6.203220586582942175e+00 -5.861839625787920838e+00 -5.662541656099155496e+00 -5.667196891286431892e+00 -5.671852126473710065e+00 -5.676507361660987350e+00 -5.681162596848264634e+00 -5.685817832035541919e+00 -5.690473067222819203e+00 -5.936783539237218577e+00 -8.372609012918942994e+00 -1.114818542345007479e+01 -1.215215580571575771e+01 -1.223888084641787977e+01 -1.249999999999999822e+01 -1.389190960290676990e+01 -1.494000000000000128e+01 -1.617974113675346715e+01 -1.710131605915215758e+01 -1.676000000000000156e+01 -1.636838104951145212e+01 -1.586936967330140646e+01 -1.535965427562207886e+01 -1.480650478981035789e+01 -1.400130447798439626e+01 -1.372972688564049193e+01 -1.370686342100809973e+01 -1.325858949777566664e+01 -1.371999999999999886e+01 -1.360761103648986747e+01 -1.303556766311324111e+01 -1.249999999999999822e+01 -1.250594622580152659e+01 -1.278499838501633512e+01 -1.250000000000000000e+01 -1.250000000000000000e+01 -1.280000000000000071e+01 -1.317268287670252036e+01 -1.310999999999999943e+01 -1.275137963197503765e+01 -1.237348417756677499e+01 -1.166605512188720439e+01 -5.749816760545719774e+00 -5.281460554662490203e+00 -5.851190334581475305e+00 -7.450567126491091763e+00 -6.132815140908253859e+00 -6.164858289234541822e+00 -6.196901437560832449e+00 -6.228944585887120411e+00 -6.260987734213409261e+00 -6.293030882539698112e+00 -6.325074030865986963e+00 -6.357117179192275813e+00 -6.389160327518564664e+00 -6.555431964765325858e+00 -6.790324089908611249e+00 -7.025216215051896640e+00 -7.260108340195182919e+00 -7.495000465338468310e+00 -7.729892590481753700e+00 -7.964784715625039091e+00 0.000000000000000000e+00 0.000000000000000000e+00 0.000000000000000000e+00 0.000000000000000000e+00 0.000000000000000000e+00 0.000000000000000000e+00 0.000000000000000000e+00 0.000000000000000000e+00
0.000000000000000000e+00 -1.284094979871942144e+01 -6.957762371445131322e+00 -7.142570249031930274e+00 -6.866927703519889903e+00 -6.155755244371272639e+00 -6.124659311327513400e+00 -5.691592843969740301e+00 -5.509846562878089493e+00 -5.514501798065365890e+00 -5.519157033252643174e+00 -5.523812268439921347e+00 -5.528467503627198631e+00 -5.533122738814475916e+00 -5.537777974001753201e+00 -5.542433209189030485e+00 -5.547088444376306882e+00 -6.165672023373830690e+00 -1.012901896582556560e+01 -1.076930612410366805e+01 -1.240950794984063421e+01 -1.364079989628526945e+01 -1.514923974806944074e+01 -1.528946849427841670e+01 -1.516700087185741808e+01 -1.655886702494239415e+01 -1.741507531443568269e+01 -1.721928613783520134e+01 -1.593162165262181773e+01 -1.558726568635468723e+01 -1.487029198974203403e+01 -1.446085467172554218e+01 -1.425030670665296029e+01 -1.401999999999999957e+01 -1.372000000000000064e+01 -1.341151992074659383e+01 -1.383525863606316797e+01 -1.355940089096008805e+01 -1.291140508854750735e+01 -1.250000000000000000e+01 -1.237156006997187774e+01 -1.242254256649986388e+01 -1.227615783437355645e+01 -1.228403004311378410e+01 -1.250000000000000000e+01 -1.279999999999999893e+01 -1.280000000000000071e+01 -1.253483808993592952e+01 -1.218999999999999950e+01 -1.189000000000000057e+01 -1.097858977485929799e+01 -5.148912899540791344e+00 -5.869028683834081939e+00 -7.468405475743699284e+00 -6.126261093474125730e+00 -6.158304241800413692e+00 -6.190347390126703431e+00 -6.222390538452991393e+00 -6.254433686779280244e+00 -6.286476835105569094e+00 -6.318519983431858833e+00 -6.350563131758146795e+00 -6.382606280084435646e+00 -6.507387555570073090e+00 -6.742279680713359369e+00 -6.977171805856644760e+00 -7.212063930999929262e+00 -7.446956056143216429e+00 -7.681848181286501820e+00 -7.916740306429787211e+00 0.000000000000000000e+00 0.000000000000000000e+00 0.000000000000000000e+00 0.000000000000000000e+00 0.000000000000000000e+00 0.000000000000000000e+00 0.000000000000000000e+00 0.000000000000000000e+00
